ply
format ascii 1.0
element vertex 1107
property float x
property float y
property float z
property uchar red
property uchar green
property uchar blue
end_header
-141.555664 -79.863060 283.192871 88 92 97
-141.552628 -79.859207 283.186798 147 151 156
-141.553314 -79.860153 283.188171 157 164 168
-141.552643 -79.855621 283.186829 121 125 130
-141.555878 -79.866211 283.193329 74 79 82
-141.553162 -79.860016 283.187927 82 89 93
-141.552261 -79.857620 283.186127 117 124 128
-141.554321 -79.862602 283.190277 134 142 144
-141.553482 -79.862228 283.188599 151 156 159
-141.557266 -79.868195 283.196167 76 81 84
-141.551773 -79.856651 283.185181 60 69 73
-141.551773 -79.856651 283.185181 60 69 73
-141.554810 -79.862679 283.191284 165 169 174
-141.554810 -79.864639 283.191284 138 143 146
-141.554810 -79.864639 283.191284 138 143 146
-141.552124 -79.857422 283.185944 61 68 72
-141.555618 -79.865028 283.192963 60 69 73
-141.549759 -79.853249 283.181244 131 139 141
-141.552002 -79.857307 283.185730 120 127 131
-141.557220 -79.864014 283.196167 73 77 82
-141.549850 -79.854889 283.181427 124 129 132
-141.554321 -79.863693 283.190369 157 168 171
-141.553696 -79.860542 283.189117 118 125 129
-141.553497 -79.858406 283.188721 135 139 144
-141.551453 -79.856438 283.184662 123 130 134
-141.551025 -79.856712 283.183807 51 58 62
-141.552902 -79.858322 283.187561 136 143 147
-141.552902 -79.858322 283.187561 136 143 147
-141.554443 -79.862465 283.190674 70 74 79
-141.553391 -79.862015 283.188568 77 79 84
-141.550903 -79.858192 283.183624 159 163 168
-141.553986 -79.863258 283.189758 75 83 85
-141.553009 -79.858719 283.187836 140 147 151
-141.553665 -79.859818 283.189178 48 52 57
-141.550079 -79.853821 283.182037 66 71 74
-141.554321 -79.864136 283.190552 130 138 140
-141.553406 -79.860352 283.188721 70 74 79
-141.551987 -79.858795 283.185883 69 76 80
-141.556458 -79.865616 283.194824 65 70 73
-141.556458 -79.865616 283.194824 65 70 73
-141.555420 -79.865410 283.192780 92 99 103
-141.551727 -79.856361 283.185394 84 89 92
-141.551727 -79.856361 283.185394 84 89 92
-141.551346 -79.857536 283.184662 82 86 91
-141.547424 -79.851112 283.176819 70 77 81
-141.551666 -79.858696 283.185303 149 151 156
-141.555237 -79.864754 283.192474 65 73 75
-141.552536 -79.858749 283.187103 121 126 129
-141.554443 -79.861412 283.190948 77 81 86
-141.550690 -79.857567 283.183472 76 80 85
-141.547791 -79.849976 283.177643 131 140 144
-141.554337 -79.863708 283.190796 75 83 85
-141.551834 -79.859016 283.185760 145 152 156
-141.547150 -79.850052 283.176392 116 124 131
-141.547150 -79.850052 283.176392 116 124 131
-141.552155 -79.858490 283.186493 153 157 162
-141.552155 -79.858490 283.186493 153 157 162
-141.552200 -79.857559 283.186584 125 129 134
-141.555954 -79.866035 283.194092 70 78 80
-141.552460 -79.859467 283.187134 73 79 86
-141.554550 -79.864227 283.191315 56 64 66
-141.553177 -79.859932 283.188568 151 158 162
-141.553177 -79.859932 283.188568 151 158 162
-141.553604 -79.861504 283.189453 128 136 138
-141.554214 -79.860588 283.190704 68 72 77
-141.552063 -79.858582 283.186432 144 146 151
-141.552063 -79.858582 283.186432 144 146 151
-141.551819 -79.859863 283.185944 52 59 63
-141.554260 -79.862289 283.190826 58 62 67
-141.557602 -79.867752 283.197510 82 89 93
-141.553299 -79.860420 283.188934 61 69 71
-141.548889 -79.851883 283.180115 122 130 137
-141.553177 -79.860733 283.188721 130 137 141
-141.553024 -79.861084 283.188477 170 178 180
-141.549469 -79.854797 283.181396 60 65 68
-141.553238 -79.859253 283.188934 65 67 72
-141.556778 -79.868507 283.196045 93 96 99
-141.554840 -79.863678 283.192200 126 129 137
-141.550720 -79.858200 283.183960 61 69 71
-141.550690 -79.857216 283.183929 139 144 145
-141.553284 -79.860764 283.189117 134 140 147
-141.552139 -79.859314 283.186859 63 72 76
-141.554626 -79.863319 283.191833 152 160 162
-141.554626 -79.863319 283.191833 152 160 162
-141.556427 -79.864098 283.195465 62 69 73
-141.555969 -79.867249 283.194580 75 83 85
-141.551544 -79.859756 283.185760 80 87 91
-141.553741 -79.861176 283.190186 159 166 170
-141.550415 -79.855354 283.183533 143 150 154
-141.553604 -79.862091 283.189941 68 73 76
-141.553940 -79.862228 283.190674 148 153 156
-141.550446 -79.855225 283.183685 67 71 76
-141.553833 -79.863983 283.190460 62 70 72
-141.551956 -79.859589 283.186737 90 93 96
-141.553101 -79.860603 283.189026 90 92 97
-141.553940 -79.863937 283.190704 81 85 90
-141.553223 -79.859779 283.189301 134 139 142
-141.555603 -79.863777 283.194092 90 98 100
-141.552643 -79.861374 283.188263 148 153 156
-141.553864 -79.861954 283.190735 97 102 105
-141.553864 -79.862389 283.190735 83 86 89
-141.553864 -79.862389 283.190735 83 86 89
-141.555496 -79.865746 283.194000 148 153 156
-141.551193 -79.857147 283.185455 127 134 138
-141.553864 -79.861435 283.190796 139 146 150
-141.551178 -79.857277 283.185425 124 128 133
-141.557297 -79.867828 283.197693 140 147 151
-141.554611 -79.864464 283.192322 138 142 147
-141.552109 -79.860062 283.187317 149 152 155
-141.552109 -79.860062 283.187317 149 152 155
-141.553192 -79.861969 283.189514 68 71 74
-141.553192 -79.861969 283.189514 68 71 74
-141.554520 -79.862785 283.192200 152 155 158
-141.556107 -79.865227 283.195435 146 150 155
-141.553482 -79.861671 283.190216 145 150 153
-141.553772 -79.862213 283.190796 81 84 87
-141.557159 -79.866333 283.197632 77 84 88
-141.556641 -79.867584 283.196594 80 83 86
-141.548035 -79.852036 283.179413 127 133 140
-141.553513 -79.862892 283.190430 77 78 81
-141.553787 -79.863113 283.190979 146 147 150
-141.549179 -79.854591 283.181793 68 75 79
-141.553070 -79.861008 283.189606 70 75 78
-141.550995 -79.858162 283.185455 62 69 73
-141.553345 -79.862587 283.190186 142 147 150
-141.556656 -79.868629 283.196838 120 128 135
-141.551849 -79.858826 283.187286 129 133 138
-141.551849 -79.858826 283.187286 129 133 138
-141.551559 -79.857201 283.186798 143 146 149
-141.549866 -79.856110 283.183441 69 76 80
-141.552704 -79.861115 283.189117 74 79 82
-141.551254 -79.859169 283.186249 67 74 78
-141.551254 -79.859169 283.186249 67 74 78
-141.549164 -79.856255 283.182098 76 83 87
-141.550995 -79.857361 283.185791 122 130 132
-141.548569 -79.853882 283.180969 64 75 78
-141.553055 -79.861137 283.189941 143 148 151
-141.553253 -79.863068 283.190369 89 97 99
-141.551239 -79.857811 283.186371 128 133 136
-141.552261 -79.859779 283.188446 72 81 85
-141.549698 -79.854225 283.183350 148 153 156
-141.556702 -79.868248 283.197357 73 81 83
-141.552704 -79.860207 283.189423 132 140 142
-141.552704 -79.860207 283.189423 132 140 142
-141.553192 -79.861481 283.190399 118 125 129
-141.553894 -79.862549 283.191803 83 90 94
-141.553070 -79.861832 283.190186 43 47 52
-141.550751 -79.857666 283.185516 166 173 177
-141.551544 -79.858055 283.187134 59 66 70
-141.551971 -79.859413 283.188019 155 163 165
-141.551102 -79.856873 283.186279 72 76 81
-141.555115 -79.863991 283.194336 133 138 141
-141.550430 -79.855934 283.184998 115 120 123
-141.548935 -79.853798 283.182037 133 141 143
-141.548935 -79.853798 283.182037 133 141 143
-141.550797 -79.856369 283.185822 73 81 83
-141.551117 -79.857002 283.186462 143 147 152
-141.552185 -79.858658 283.188599 152 156 161
-141.549484 -79.853493 283.183197 68 75 79
-141.549484 -79.853493 283.183197 68 75 79
-141.553253 -79.862556 283.190735 171 177 184
-141.555740 -79.865608 283.195770 64 68 73
-141.555740 -79.865608 283.195770 64 68 73
-141.548767 -79.854019 283.181824 135 143 145
-141.555237 -79.866272 283.194794 79 87 89
-141.551254 -79.859344 283.186859 62 69 73
-141.551758 -79.859695 283.187866 136 143 147
-141.554230 -79.864532 283.192810 156 164 166
-141.555161 -79.866035 283.194672 132 140 142
-141.555161 -79.866035 283.194672 132 140 142
-141.558395 -79.869713 283.201172 62 70 72
-141.554825 -79.865326 283.194092 145 150 153
-141.552490 -79.860420 283.189423 146 154 156
-141.554184 -79.862549 283.192841 60 64 69
-141.551636 -79.858482 283.187775 66 70 75
-141.551224 -79.856606 283.186951 69 74 77
-141.554993 -79.865974 283.194519 79 87 89
-141.556015 -79.867508 283.196533 66 74 76
-141.556015 -79.867508 283.196533 66 74 76
-141.551895 -79.858353 283.188354 116 123 127
-141.554062 -79.862862 283.192688 76 81 82
-141.549088 -79.856522 283.182770 65 68 71
-141.549088 -79.856522 283.182770 65 68 71
-141.551407 -79.859543 283.187408 134 141 145
-141.551941 -79.861450 283.188507 128 133 136
-141.551971 -79.858353 283.188538 68 75 79
-141.551971 -79.858353 283.188538 68 75 79
-141.550461 -79.856392 283.185516 69 78 82
-141.548187 -79.852638 283.181030 54 62 69
-141.550690 -79.857376 283.186035 143 146 149
-141.551147 -79.856300 283.186951 77 81 86
-141.550079 -79.857162 283.184845 146 151 154
-141.553436 -79.863548 283.191620 79 86 90
-141.553406 -79.863075 283.191559 121 131 133
-141.550217 -79.857079 283.185181 73 78 81
-141.549454 -79.856323 283.183685 71 78 82
-141.551361 -79.856720 283.187500 64 68 73
-141.548538 -79.854492 283.181885 132 140 142
-141.546539 -79.850822 283.177887 132 138 145
-141.547195 -79.851730 283.179230 69 76 80
-141.552109 -79.859901 283.189056 121 131 133
-141.554504 -79.864929 283.193878 70 75 78
-141.550217 -79.856224 283.185303 69 74 77
-141.550217 -79.856224 283.185303 69 74 77
-141.547974 -79.853081 283.180847 128 135 139
-141.553894 -79.863480 283.192719 72 80 82
-141.550812 -79.858017 283.186554 146 154 156
-141.552704 -79.862503 283.190369 79 82 85
-141.553268 -79.863655 283.191498 84 89 92
-141.547913 -79.852211 283.180817 155 162 166
-141.551880 -79.859619 283.188751 138 146 148
-141.548828 -79.855675 283.182709 61 69 71
-141.553192 -79.863152 283.191467 126 134 136
-141.552887 -79.862114 283.190857 66 73 77
-141.553452 -79.862053 283.192017 82 89 93
-141.549255 -79.854706 283.183624 139 147 149
-141.553513 -79.864555 283.192139 186 191 194
-141.555206 -79.866470 283.195526 74 79 82
-141.555267 -79.867073 283.195679 146 151 154
-141.552139 -79.862007 283.189392 157 161 166
-141.553299 -79.862297 283.191742 145 149 154
-141.550247 -79.857048 283.185699 132 136 141
-141.555099 -79.866951 283.195404 49 57 59
-141.549164 -79.855705 283.183563 131 135 140
-141.551605 -79.857773 283.188477 68 72 77
-141.551605 -79.857773 283.188477 68 72 77
-141.552078 -79.859566 283.189453 64 69 72
-141.549789 -79.856438 283.184906 77 82 85
-141.550430 -79.857544 283.186218 73 81 83
-141.551422 -79.860001 283.188202 145 150 153
-141.552704 -79.860878 283.190826 46 51 54
-141.554657 -79.865128 283.194733 75 79 84
-141.553146 -79.863197 283.191711 152 157 160
-141.548370 -79.856483 283.182220 125 133 135
-141.549744 -79.854820 283.184998 149 156 160
-141.551102 -79.858566 283.187714 75 79 84
-141.551834 -79.861275 283.189209 51 56 59
-141.551834 -79.861275 283.189209 51 56 59
-141.555115 -79.863182 283.195801 129 133 138
-141.552475 -79.861145 283.190521 63 69 76
-141.552414 -79.862717 283.190430 131 136 139
-141.551086 -79.859634 283.187775 145 148 151
-141.554016 -79.863426 283.193665 65 69 74
-141.548477 -79.852974 283.182617 141 148 152
-141.548477 -79.852974 283.182617 141 148 152
-141.549377 -79.855637 283.184418 131 134 137
-141.551453 -79.859314 283.188629 153 160 164
-141.551453 -79.859314 283.188629 153 160 164
-141.553680 -79.863731 283.193115 125 130 133
-141.548477 -79.853508 283.182739 142 151 155
-141.551743 -79.859879 283.189331 177 182 185
-141.551620 -79.860039 283.189117 160 164 169
-141.551468 -79.858711 283.188782 66 73 77
-141.546402 -79.852303 283.178680 77 87 93
-141.548691 -79.855133 283.183289 124 131 135
-141.548691 -79.855133 283.183289 124 131 135
-141.553131 -79.862709 283.192200 158 162 167
-141.550217 -79.855911 283.186340 71 75 80
-141.550385 -79.858406 283.186707 64 71 75
-141.555206 -79.867668 283.196381 75 79 84
-141.550430 -79.858124 283.186829 125 132 136
-141.550095 -79.859451 283.186188 72 79 83
-141.550491 -79.859612 283.186981 114 121 125
-141.553268 -79.863625 283.192505 146 148 153
-141.548019 -79.854996 283.182037 139 144 147
-141.553955 -79.863396 283.193939 153 158 161
-141.554398 -79.864029 283.194824 83 86 89
-141.554291 -79.865242 283.194611 146 154 156
-141.549515 -79.857155 283.185089 160 167 171
-141.551529 -79.859001 283.189117 45 49 54
-141.550232 -79.857513 283.186584 86 93 97
-141.550583 -79.857986 283.187286 73 77 82
-141.551605 -79.858620 283.189362 77 81 86
-141.553635 -79.864212 283.193390 146 151 154
-141.551117 -79.859726 283.188416 78 88 90
-141.553253 -79.863670 283.192657 62 63 71
-141.547440 -79.853256 283.181061 81 87 94
-141.552048 -79.860741 283.190338 143 151 153
-141.550613 -79.859016 283.187469 70 74 79
-141.549484 -79.855888 283.185242 135 143 145
-141.548599 -79.855919 283.183472 73 81 83
-141.551102 -79.858826 283.188477 148 153 156
-141.552322 -79.860847 283.190948 87 95 97
-141.553513 -79.865173 283.193359 124 129 132
-141.550339 -79.858353 283.187012 69 74 77
-141.552505 -79.860405 283.191376 70 79 83
-141.552246 -79.860329 283.190857 133 142 146
-141.551300 -79.859238 283.188965 73 81 83
-141.550003 -79.855713 283.186432 83 88 91
-141.550018 -79.856354 283.186462 83 90 94
-141.551941 -79.860550 283.190308 44 51 55
-141.554245 -79.865166 283.194946 121 129 131
-141.555634 -79.867851 283.197723 135 140 143
-141.555634 -79.867851 283.197723 135 140 143
-141.549377 -79.855324 283.185211 116 121 124
-141.549316 -79.856567 283.185089 127 131 136
-141.553375 -79.865219 283.193237 130 137 141
-141.552963 -79.863792 283.192413 151 154 157
-141.554092 -79.864525 283.194733 77 82 85
-141.552017 -79.861229 283.190643 68 73 76
-141.552017 -79.861229 283.190643 68 73 76
-141.552994 -79.862968 283.192566 75 79 84
-141.553284 -79.865074 283.193146 143 148 151
-141.548981 -79.855354 283.184570 61 68 72
-141.549011 -79.854881 283.184631 84 91 95
-141.550171 -79.858025 283.186981 65 69 74
-141.547699 -79.853851 283.182098 85 92 96
-141.553360 -79.865181 283.193420 67 72 75
-141.554291 -79.865997 283.195282 169 177 179
-141.547699 -79.854698 283.182129 155 164 168
-141.547699 -79.854698 283.182129 155 164 168
-141.549637 -79.859940 283.186096 130 133 136
-141.549301 -79.854942 283.185425 137 141 146
-141.556122 -79.866722 283.199127 122 127 130
-141.553391 -79.864983 283.193695 65 72 76
-141.554138 -79.863686 283.195190 133 141 143
-141.555649 -79.869606 283.198181 119 126 130
-141.554230 -79.865768 283.195374 138 143 146
-141.555038 -79.868423 283.197021 50 58 60
-141.549911 -79.857597 283.186768 79 87 89
-141.555038 -79.867157 283.197052 57 64 68
-141.548782 -79.856888 283.184570 120 129 133
-141.550339 -79.857658 283.187683 68 76 83
-141.549911 -79.859215 283.186859 72 79 83
-141.557358 -79.869011 283.201752 69 74 77
-141.554428 -79.866875 283.195892 143 150 154
-141.547668 -79.855598 283.182373 82 91 95
-141.550995 -79.861664 283.189056 52 59 63
-141.555511 -79.868240 283.198090 78 85 89
-141.550674 -79.859619 283.188416 64 67 75
-141.549896 -79.858215 283.186890 68 73 76
-141.549438 -79.855156 283.185974 139 143 148
-141.551849 -79.860794 283.190826 67 76 80
-141.549225 -79.857338 283.185577 75 82 86
-141.549316 -79.856682 283.185791 73 80 84
-141.554932 -79.865883 283.197052 159 167 169
-141.556671 -79.867935 283.200531 67 72 75
-141.554123 -79.866447 283.195465 138 141 142
-141.550125 -79.860573 283.187469 74 82 84
-141.549789 -79.857063 283.186798 145 152 156
-141.545746 -79.850380 283.178711 130 141 144
-141.553818 -79.863876 283.194885 77 82 85
-141.547348 -79.852081 283.181976 142 146 151
-141.550110 -79.857353 283.187531 77 84 88
-141.551971 -79.862373 283.191254 146 153 157
-141.551727 -79.861969 283.190796 57 61 66
-141.548264 -79.853951 283.183868 127 129 134
-141.551926 -79.863617 283.191193 44 52 54
-141.553421 -79.865746 283.194214 67 74 78
-141.554794 -79.866440 283.196991 126 130 135
-141.554794 -79.866440 283.196991 126 130 135
-141.550156 -79.857468 283.187744 150 154 159
-141.552338 -79.862183 283.192291 129 132 135
-141.553802 -79.866425 283.195251 79 89 91
-141.552338 -79.862740 283.192383 65 69 74
-141.552063 -79.861122 283.191833 67 72 75
-141.548965 -79.858398 283.185699 77 81 86
-141.550705 -79.862312 283.189148 58 62 67
-141.550171 -79.856773 283.188202 141 146 149
-141.553345 -79.864716 283.194611 69 74 77
-141.549118 -79.855247 283.186157 129 136 140
-141.548645 -79.854485 283.185181 133 138 141
-141.549515 -79.857407 283.186951 68 75 79
-141.552231 -79.862595 283.192383 74 79 82
-141.548584 -79.855766 283.185120 67 75 77
-141.551514 -79.859863 283.190979 76 80 85
-141.553696 -79.864510 283.195343 151 159 161
-141.553696 -79.864510 283.195343 151 159 161
-141.551483 -79.859062 283.190948 69 74 77
-141.552399 -79.863846 283.192810 81 89 91
-141.548752 -79.857193 283.185516 124 131 135
-141.556778 -79.870705 283.201569 69 76 80
-141.556778 -79.870705 283.201569 69 76 80
-141.552216 -79.862213 283.192474 155 159 164
-141.551804 -79.863815 283.191681 164 169 172
-141.549850 -79.860764 283.187775 60 64 69
-141.550095 -79.859512 283.188263 134 142 144
-141.553940 -79.865936 283.195953 73 77 82
-141.551926 -79.861031 283.191925 55 63 65
-141.554749 -79.865646 283.197601 134 139 142
-141.549683 -79.858116 283.187500 141 149 151
-141.549683 -79.858116 283.187500 141 149 151
-141.549683 -79.858116 283.187500 141 149 151
-141.552902 -79.864540 283.193939 60 65 68
-141.549423 -79.858467 283.186981 149 157 159
-141.549423 -79.858467 283.186981 149 157 159
-141.551132 -79.860558 283.190460 160 168 170
-141.551926 -79.863426 283.192078 58 62 67
-141.549606 -79.857994 283.187439 80 87 91
-141.554733 -79.866615 283.197723 150 155 158
-141.550369 -79.858925 283.189026 147 154 158
-141.548050 -79.854462 283.184387 136 140 145
-141.552261 -79.862625 283.192780 70 73 81
-141.552444 -79.864632 283.193268 64 69 72
-141.549622 -79.857384 283.187592 143 151 153
-141.549622 -79.857384 283.187592 143 151 153
-141.549896 -79.859932 283.188171 67 74 78
-141.548477 -79.856705 283.185394 70 72 77
-141.552567 -79.862022 283.193542 78 85 89
-141.549866 -79.857025 283.188141 125 132 136
-141.548706 -79.857178 283.185852 170 175 178
-141.549377 -79.858047 283.187195 125 133 135
-141.551056 -79.861298 283.190582 64 71 75
-141.554413 -79.867935 283.197296 62 69 73
-141.552261 -79.864952 283.193024 132 139 143
-141.549927 -79.861153 283.188385 74 79 82
-141.552856 -79.864281 283.194275 70 77 81
-141.551590 -79.861267 283.191742 64 71 75
-141.551620 -79.861877 283.191833 178 183 186
-141.552856 -79.865517 283.194275 134 142 144
-141.549240 -79.857567 283.187073 76 84 86
-141.549240 -79.857567 283.187073 76 84 86
-141.550415 -79.858047 283.189423 136 144 146
-141.550476 -79.858643 283.189545 68 75 79
-141.552338 -79.861748 283.193298 151 158 162
-141.548340 -79.855957 283.185303 81 86 89
-141.548767 -79.855896 283.186188 80 85 88
-141.548767 -79.855896 283.186188 80 85 88
-141.548965 -79.856438 283.186554 74 82 84
-141.549423 -79.857773 283.187469 140 148 150
-141.549652 -79.857758 283.187958 123 131 133
-141.551117 -79.862091 283.190918 59 66 70
-141.551453 -79.864563 283.191650 69 72 75
-141.549377 -79.856773 283.187500 134 139 142
-141.553604 -79.866859 283.195953 120 128 130
-141.549622 -79.857628 283.188019 88 95 99
-141.554031 -79.865501 283.196869 75 80 83
-141.553513 -79.866913 283.195831 67 75 77
-141.551804 -79.862701 283.192413 168 176 178
-141.551773 -79.861427 283.192352 133 138 141
-141.547821 -79.855629 283.184448 145 156 159
-141.549667 -79.859360 283.188141 128 136 138
-141.549438 -79.857628 283.187714 145 152 156
-141.549438 -79.857628 283.187714 145 152 156
-141.553253 -79.863602 283.195374 51 56 59
-141.552490 -79.863029 283.193848 62 69 73
-141.551834 -79.862518 283.192566 65 73 75
-141.551376 -79.860001 283.191681 59 64 67
-141.548187 -79.853981 283.185303 88 95 99
-141.547470 -79.855286 283.183868 130 139 143
-141.552689 -79.865326 283.194336 148 153 156
-141.550690 -79.861847 283.190369 186 191 194
-141.551605 -79.861069 283.192169 120 124 129
-141.552200 -79.862617 283.193420 76 81 84
-141.546707 -79.853119 283.182434 127 136 140
-141.553162 -79.865112 283.195343 127 132 135
-141.549622 -79.858635 283.188263 126 133 137
-141.554764 -79.867561 283.198547 160 165 168
-141.550674 -79.859673 283.190369 125 130 133
-141.548828 -79.857002 283.186707 125 133 135
-141.549377 -79.857590 283.187805 130 138 145
-141.549377 -79.857590 283.187805 130 138 145
-141.549713 -79.858414 283.188538 66 73 77
-141.553391 -79.866852 283.195923 68 76 78
-141.549210 -79.858070 283.187561 152 159 163
-141.550598 -79.859543 283.190369 145 153 155
-141.552750 -79.865028 283.194672 77 82 85
-141.552383 -79.863396 283.193970 128 133 136
-141.554291 -79.866974 283.197845 70 77 81
-141.548660 -79.856476 283.186584 77 87 89
-141.551788 -79.863022 283.192871 67 72 75
-141.551788 -79.863022 283.192871 67 72 75
-141.548752 -79.857864 283.186798 69 76 80
-141.551529 -79.863396 283.192413 72 77 80
-141.548126 -79.856102 283.185638 68 78 80
-141.551590 -79.863686 283.192566 143 148 151
-141.549240 -79.857857 283.187897 129 135 142
-141.546707 -79.855370 283.182861 152 162 164
-141.549362 -79.858513 283.188171 63 68 71
-141.550827 -79.860641 283.191101 73 80 84
-141.552139 -79.863541 283.193756 64 69 72
-141.550751 -79.860474 283.191010 80 85 88
-141.550705 -79.860886 283.190918 83 87 92
-141.550705 -79.860886 283.190918 83 87 92
-141.555466 -79.869904 283.200470 127 135 137
-141.554260 -79.867416 283.198120 150 153 156
-141.547684 -79.856445 283.184967 78 85 89
-141.551285 -79.862305 283.192200 88 95 99
-141.551285 -79.862305 283.192200 88 95 99
-141.549652 -79.857880 283.188904 134 139 142
-141.550278 -79.859131 283.190186 153 161 163
-141.548935 -79.855095 283.187561 84 89 92
-141.555008 -79.867691 283.199707 79 84 87
-141.547058 -79.854111 283.183807 151 156 159
-141.547394 -79.855759 283.184479 75 84 88
-141.547394 -79.855759 283.184479 75 84 88
-141.550629 -79.860832 283.191040 68 76 78
-141.550629 -79.860832 283.191040 68 76 78
-141.549637 -79.860405 283.189056 74 78 83
-141.549393 -79.856812 283.188599 133 143 145
-141.552368 -79.864807 283.194580 119 124 127
-141.549072 -79.857147 283.187958 70 80 82
-141.554779 -79.868744 283.199432 140 145 148
-141.547684 -79.856010 283.185211 126 134 136
-141.550522 -79.859825 283.190948 67 77 79
-141.555817 -79.870079 283.201569 159 166 170
-141.551437 -79.862434 283.192871 64 68 73
-141.550568 -79.860680 283.191162 84 89 92
-141.548080 -79.856499 283.186188 132 137 140
-141.548080 -79.856499 283.186188 132 137 140
-141.546921 -79.855110 283.183868 130 135 138
-141.555145 -79.869736 283.200348 137 143 150
-141.555145 -79.869736 283.200348 137 143 150
-141.548935 -79.857552 283.187927 144 152 154
-141.548935 -79.857552 283.187927 144 152 154
-141.552902 -79.864723 283.195892 131 136 139
-141.552536 -79.864601 283.195160 79 84 87
-141.552536 -79.864601 283.195160 79 84 87
-141.551636 -79.862488 283.193390 169 174 177
-141.552490 -79.865288 283.195129 169 174 177
-141.548828 -79.857880 283.187805 67 75 77
-141.551727 -79.863914 283.193604 72 77 80
-141.545471 -79.851608 283.181091 147 151 156
-141.554626 -79.867180 283.199402 66 74 76
-141.552628 -79.865417 283.195404 90 95 98
-141.548309 -79.858551 283.186768 60 69 73
-141.550674 -79.861366 283.191498 180 184 189
-141.554230 -79.868713 283.198639 130 135 138
-141.551559 -79.863960 283.193298 67 70 73
-141.548706 -79.855873 283.187592 142 147 150
-141.554565 -79.866295 283.199341 127 132 135
-141.548752 -79.857040 283.187714 78 82 87
-141.548752 -79.857040 283.187714 78 82 87
-141.552704 -79.865753 283.195587 133 138 141
-141.549469 -79.858841 283.189148 72 79 83
-141.553070 -79.868011 283.196350 63 67 72
-141.550507 -79.861237 283.191284 56 63 67
-141.550369 -79.860435 283.191010 84 88 93
-141.550369 -79.860435 283.191010 84 88 93
-141.550613 -79.861504 283.191498 145 150 153
-141.548691 -79.856461 283.187683 66 73 77
-141.552261 -79.864357 283.194824 170 172 177
-141.550430 -79.860565 283.191193 129 136 140
-141.553635 -79.868591 283.197632 86 90 95
-141.552490 -79.864632 283.195343 132 135 138
-141.548447 -79.857101 283.187286 69 79 81
-141.550995 -79.861839 283.192383 73 78 81
-141.554077 -79.865608 283.198547 62 67 70
-141.552887 -79.866432 283.196198 147 155 157
-141.547592 -79.855095 283.185638 144 149 152
-141.547592 -79.855095 283.185638 144 149 152
-141.550644 -79.861534 283.191772 76 81 84
-141.550644 -79.861534 283.191772 76 81 84
-141.552277 -79.864159 283.195007 72 76 81
-141.547211 -79.852890 283.184875 126 130 135
-141.547211 -79.852890 283.184875 126 130 135
-141.555695 -79.869499 283.201874 83 87 92
-141.547119 -79.854980 283.184753 85 90 93
-141.549026 -79.858208 283.188568 135 144 148
-141.552048 -79.863617 283.194641 74 79 82
-141.551346 -79.860832 283.193207 52 55 58
-141.549332 -79.857681 283.189240 137 144 148
-141.551666 -79.864960 283.193939 146 151 154
-141.552887 -79.865303 283.196381 54 61 65
-141.547211 -79.855293 283.185028 135 143 145
-141.550461 -79.860764 283.191559 145 149 154
-141.550583 -79.860374 283.191772 144 148 153
-141.550674 -79.864655 283.191986 124 132 134
-141.551117 -79.863426 283.192902 90 92 97
-141.550964 -79.864555 283.192627 63 68 71
-141.550217 -79.860481 283.191162 75 82 86
-141.553177 -79.867973 283.197174 142 145 148
-141.548523 -79.857018 283.187897 47 54 58
-141.552002 -79.863777 283.194824 181 186 189
-141.547653 -79.855896 283.186127 137 146 150
-141.552872 -79.866463 283.196655 65 73 75
-141.549545 -79.860329 283.190002 58 66 68
-141.553528 -79.868301 283.198029 85 90 93
-141.547470 -79.856972 283.185913 70 79 83
-141.549744 -79.859901 283.190491 68 72 77
-141.549377 -79.859200 283.189758 147 155 157
-141.548813 -79.858963 283.188660 71 76 79
-141.552322 -79.865021 283.195709 144 151 155
-141.550964 -79.862785 283.192993 153 157 162
-141.547852 -79.857018 283.186859 73 81 83
-141.549072 -79.856438 283.189331 78 85 89
-141.552734 -79.866821 283.196686 123 128 131
-141.547073 -79.855934 283.185333 61 69 71
-141.549149 -79.857239 283.189514 127 132 135
-141.549286 -79.860664 283.189850 77 81 86
-141.548096 -79.857422 283.187469 62 67 70
-141.549850 -79.859703 283.191010 70 77 81
-141.552765 -79.866081 283.196838 59 64 67
-141.544083 -79.850700 283.179504 130 139 143
-141.552414 -79.865341 283.196198 142 152 154
-141.551605 -79.863892 283.194733 66 71 74
-141.546402 -79.854034 283.184326 79 84 87
-141.552933 -79.865829 283.197418 56 64 66
-141.549561 -79.860214 283.190704 138 142 147
-141.553772 -79.866371 283.199127 122 130 132
-141.547562 -79.856354 283.186737 148 156 158
-141.551956 -79.864349 283.195587 149 157 159
-141.546478 -79.856216 283.184631 76 80 85
-141.551376 -79.865234 283.194519 86 89 92
-141.550278 -79.861786 283.192291 70 78 80
-141.549393 -79.860100 283.190643 72 77 80
-141.550552 -79.863945 283.192963 64 74 76
-141.549225 -79.860107 283.190338 84 88 93
-141.550461 -79.861015 283.192780 70 75 78
-141.548676 -79.858406 283.189240 67 74 78
-141.550842 -79.864197 283.193573 136 146 148
-141.553192 -79.866066 283.198303 76 84 86
-141.550812 -79.862442 283.193542 145 153 155
-141.549927 -79.859497 283.191833 71 79 81
-141.547302 -79.854034 283.186584 135 142 146
-141.546707 -79.855530 283.185425 71 82 85
-141.546707 -79.855530 283.185425 71 82 85
-141.548874 -79.859360 283.189728 68 70 75
-141.547485 -79.857338 283.186981 126 133 137
-141.548538 -79.859711 283.189117 139 143 148
-141.546738 -79.855499 283.185547 128 139 142
-141.550339 -79.861313 283.192749 147 154 158
-141.546265 -79.854111 283.184631 150 154 159
-141.548935 -79.859612 283.189941 157 162 165
-141.548935 -79.859612 283.189941 157 162 165
-141.546951 -79.853462 283.186035 126 135 139
-141.547134 -79.856575 283.186401 139 146 150
-141.546631 -79.856247 283.185455 73 81 83
-141.548447 -79.858772 283.189056 76 84 86
-141.551590 -79.865051 283.195404 164 169 172
-141.552597 -79.865883 283.197418 129 137 139
-141.553909 -79.868599 283.200073 140 148 150
-141.548233 -79.858612 283.188751 136 145 149
-141.549469 -79.859772 283.191223 143 147 152
-141.546173 -79.856400 283.184662 130 135 138
-141.548355 -79.857368 283.189026 77 85 87
-141.550888 -79.862633 283.194183 62 72 74
-141.547119 -79.855980 283.186707 57 65 67
-141.551041 -79.862801 283.194519 133 141 143
-141.547562 -79.856918 283.187622 135 140 143
-141.547562 -79.856918 283.187622 135 140 143
-141.552063 -79.864578 283.196655 44 49 52
-141.552078 -79.864494 283.196686 164 169 172
-141.552078 -79.864494 283.196686 164 169 172
-141.551193 -79.864151 283.194885 159 164 167
-141.550583 -79.862648 283.193695 139 144 147
-141.550491 -79.859673 283.193542 132 140 142
-141.549942 -79.861488 283.192474 74 79 82
-141.549042 -79.858795 283.190674 77 84 88
-141.550522 -79.862556 283.193634 59 64 67
-141.547455 -79.856827 283.187500 84 89 92
-141.547562 -79.857475 283.187683 143 148 151
-141.547562 -79.857475 283.187683 143 148 151
-141.548798 -79.858963 283.190216 150 154 159
-141.552246 -79.864960 283.197113 70 75 78
-141.550385 -79.861023 283.193420 51 56 59
-141.550385 -79.861023 283.193420 51 56 59
-141.549881 -79.861862 283.192413 128 136 138
-141.551178 -79.861534 283.195007 121 124 127
-141.545517 -79.852959 283.183716 136 143 147
-141.553223 -79.868530 283.199158 91 96 99
-141.554703 -79.869301 283.202118 135 140 143
-141.549057 -79.857666 283.190826 69 73 78
-141.548599 -79.858742 283.189972 72 80 82
-141.550095 -79.861023 283.192993 86 91 94
-141.549606 -79.859802 283.192078 125 130 133
-141.551788 -79.866325 283.196472 57 60 63
-141.551788 -79.866325 283.196472 57 60 63
-141.549637 -79.861214 283.192200 141 149 151
-141.551620 -79.866302 283.196198 131 136 139
-141.549118 -79.861824 283.191254 71 79 81
-141.551178 -79.864944 283.195343 73 81 83
-141.551819 -79.865387 283.196655 136 144 146
-141.552216 -79.866051 283.197449 119 122 125
-141.552216 -79.866051 283.197449 119 122 125
-141.549850 -79.862198 283.192780 157 162 165
-141.549850 -79.862198 283.192780 157 162 165
-141.550430 -79.862770 283.193970 69 74 77
-141.549835 -79.861404 283.192780 87 92 95
-141.550705 -79.862343 283.194550 74 79 82
-141.550812 -79.862030 283.194794 134 139 142
-141.548477 -79.858788 283.190125 77 82 85
-141.551804 -79.865791 283.196777 62 65 68
-141.551514 -79.865372 283.196259 86 91 94
-141.551804 -79.866508 283.196869 123 124 127
-141.549469 -79.863068 283.192200 54 59 62
-141.550491 -79.861679 283.194305 117 122 125
-141.550491 -79.861679 283.194305 117 122 125
-141.552338 -79.866058 283.197968 131 134 137
-141.546906 -79.855652 283.187134 126 134 136
-141.551193 -79.862564 283.195740 130 135 138
-141.545929 -79.854813 283.185211 68 79 82
-141.548889 -79.858406 283.191193 75 83 85
-141.550049 -79.861252 283.193573 140 144 149
-141.548019 -79.856308 283.189514 86 91 94
-141.547989 -79.859772 283.189453 71 79 81
-141.550980 -79.865349 283.195435 136 139 142
-141.548660 -79.858536 283.190826 86 93 97
-141.548660 -79.858536 283.190826 86 93 97
-141.549881 -79.862808 283.193298 127 130 131
-141.549667 -79.863480 283.192932 136 141 144
-141.553467 -79.869423 283.200500 73 78 81
-141.548889 -79.861839 283.191376 148 153 156
-141.547684 -79.857620 283.188965 130 134 139
-141.544342 -79.851807 283.182312 81 89 96
-141.547165 -79.855782 283.187988 126 137 140
-141.550400 -79.864929 283.194519 148 153 156
-141.546280 -79.854530 283.186279 132 137 140
-141.546753 -79.855507 283.187256 75 86 89
-141.550552 -79.862114 283.194916 82 87 90
-141.550110 -79.860916 283.194031 66 74 76
-141.550110 -79.860916 283.194031 66 74 76
-141.549423 -79.859055 283.192657 74 82 84
-141.549423 -79.859055 283.192657 74 82 84
-141.549484 -79.861465 283.192810 181 186 189
-141.549789 -79.863602 283.193481 73 76 79
-141.549789 -79.863602 283.193481 73 76 79
-141.550568 -79.863190 283.195007 150 158 160
-141.549866 -79.863708 283.193634 136 139 142
-141.547089 -79.856354 283.188080 127 131 136
-141.548721 -79.859215 283.191345 153 160 164
-141.548721 -79.859093 283.191345 129 135 142
-141.548141 -79.858833 283.190216 72 79 83
-141.551422 -79.864487 283.196808 149 152 155
-141.546631 -79.857201 283.187225 143 151 153
-141.549026 -79.859253 283.192078 89 93 98
-141.550339 -79.862030 283.194702 70 73 76
-141.550598 -79.863014 283.195221 149 152 155
-141.550400 -79.862419 283.194885 142 149 153
-141.550568 -79.862953 283.195190 81 86 89
-141.551407 -79.865616 283.196930 70 75 78
-141.552399 -79.866241 283.198944 148 153 156
-141.550476 -79.862549 283.195099 67 74 78
-141.548264 -79.859558 283.190674 132 137 140
-141.554062 -79.870171 283.202301 137 140 143
-141.545990 -79.854805 283.186157 135 139 144
-141.543320 -79.852982 283.180786 129 133 138
-141.548553 -79.858116 283.191315 87 92 95
-141.550049 -79.861031 283.194275 107 114 118
-141.550049 -79.861031 283.194275 107 114 118
-141.551300 -79.865692 283.196838 71 76 79
-141.551300 -79.865692 283.196838 71 76 79
-141.544846 -79.854622 283.183960 141 145 150
-141.549561 -79.861877 283.193451 155 163 165
-141.552521 -79.867470 283.199371 150 155 158
-141.552521 -79.867470 283.199371 150 155 158
-141.548874 -79.860268 283.192047 60 67 71
-141.549988 -79.860641 283.194366 63 68 71
-141.549301 -79.860474 283.192963 124 128 133
-141.550446 -79.865234 283.195282 73 78 81
-141.549637 -79.860901 283.193695 65 72 76
-141.552612 -79.867020 283.199646 141 148 152
-141.553421 -79.867554 283.201294 84 89 92
-141.546982 -79.857491 283.188416 139 146 150
-141.547577 -79.858543 283.189636 125 130 133
-141.552414 -79.868858 283.199341 143 148 151
-141.554581 -79.870171 283.203735 72 77 80
-141.548706 -79.859634 283.191986 148 158 160
-141.552780 -79.868095 283.200195 60 63 64
-141.550751 -79.863029 283.196167 60 68 70
-141.550751 -79.863029 283.196167 60 68 70
-141.546432 -79.856491 283.187561 130 137 141
-141.546753 -79.859123 283.188202 139 144 147
-141.549973 -79.862549 283.194641 134 142 144
-141.549149 -79.861732 283.192993 169 174 177
-141.548019 -79.859329 283.190796 91 101 103
-141.549713 -79.862122 283.194183 84 89 92
-141.549377 -79.864357 283.193512 93 98 101
-141.546387 -79.856628 283.187592 87 91 96
-141.547897 -79.858505 283.190613 138 143 146
-141.549042 -79.861153 283.192963 167 172 175
-141.547287 -79.857079 283.189453 149 156 160
-141.547287 -79.857079 283.189453 149 156 160
-141.548904 -79.859940 283.192719 76 84 86
-141.546738 -79.857025 283.188416 126 131 134
-141.548920 -79.862793 283.192810 67 74 78
-141.547379 -79.858650 283.189728 144 152 154
-141.547043 -79.857590 283.189087 77 85 92
-141.550308 -79.866165 283.195618 113 118 121
-141.547684 -79.857300 283.190369 73 80 84
-141.548569 -79.859619 283.192169 67 75 77
-141.549286 -79.859695 283.193665 58 66 68
-141.548660 -79.861115 283.192413 63 66 69
-141.547760 -79.858559 283.190613 124 129 132
-141.548096 -79.859138 283.191284 73 81 83
-141.546188 -79.855530 283.187500 135 142 146
-141.549500 -79.861740 283.194122 67 72 75
-141.549362 -79.861778 283.193848 57 62 65
-141.547150 -79.858559 283.189453 162 167 170
-141.547150 -79.858559 283.189453 162 167 170
-141.552612 -79.868675 283.200378 60 65 68
-141.549011 -79.859238 283.193207 87 92 95
-141.549728 -79.861687 283.194641 149 154 157
-141.549728 -79.861687 283.194641 149 154 157
-141.547501 -79.859230 283.190216 71 75 80
-141.550430 -79.862747 283.196045 78 81 82
-141.546829 -79.857391 283.188873 88 92 97
-141.548203 -79.860016 283.191681 55 60 63
-141.547119 -79.857628 283.189514 143 147 152
-141.549118 -79.861641 283.193512 55 60 63
-141.548889 -79.859558 283.193085 85 90 93
-141.549179 -79.861618 283.193695 173 181 183
-141.545486 -79.856873 283.186371 82 89 93
-141.550125 -79.863205 283.195648 156 164 166
-141.550781 -79.864540 283.197021 136 137 138
-141.549103 -79.860825 283.193726 169 174 177
-141.548080 -79.863121 283.191681 60 63 64
-141.544617 -79.854362 283.184784 71 75 80
-141.548492 -79.859726 283.192566 76 83 87
-141.548492 -79.859726 283.192566 76 83 87
-141.546906 -79.857292 283.189392 68 76 78
-141.547333 -79.858475 283.190247 122 132 134
-141.548431 -79.859818 283.192474 158 165 169
-141.549149 -79.861412 283.194000 146 151 154
-141.547073 -79.857452 283.189880 127 134 138
-141.551971 -79.867828 283.199707 81 86 89
-141.549789 -79.861801 283.195465 129 137 139
-141.546997 -79.858360 283.190002 87 95 97
-141.547012 -79.858238 283.190063 66 71 74
-141.545502 -79.855202 283.187042 82 89 93
-141.549988 -79.864197 283.196075 149 154 157
-141.550751 -79.866264 283.197693 54 59 62
-141.550217 -79.865906 283.196655 170 175 178
-0.352292 -0.198133 0.704378 63 66 67
-0.352293 -0.198138 0.704379 111 114 117
-0.352293 -0.198137 0.704378 47 48 49
-0.352292 -0.198133 0.704378 125 128 129
-0.352293 -0.198138 0.704379 58 61 62
-0.352293 -0.198139 0.704379 60 63 64
-0.352293 -0.198147 0.704380 56 59 60
-0.352293 -0.198139 0.704379 50 53 54
-0.352293 -0.198139 0.704379 69 72 73
-0.352293 -0.198138 0.704379 53 56 57
-0.352293 -0.198140 0.704380 115 118 119
-0.352292 -0.198132 0.704378 47 52 55
-0.352292 -0.198140 0.704380 45 46 47
-0.352293 -0.198142 0.704380 59 62 63
-0.352293 -0.198145 0.704381 65 68 71
-0.352292 -0.198140 0.704380 141 142 143
-0.352293 -0.198152 0.704382 124 127 128
-0.352292 -0.198129 0.704379 107 112 115
-0.352292 -0.198129 0.704379 107 112 115
-0.352293 -0.198144 0.704381 58 63 64
-0.352293 -0.198145 0.704381 119 120 123
-0.352292 -0.198138 0.704380 47 48 49
-0.352292 -0.198140 0.704380 54 57 58
-0.352293 -0.198149 0.704382 110 115 116
-0.352292 -0.198139 0.704381 51 54 55
-0.352292 -0.198143 0.704382 118 121 122
-0.352292 -0.198137 0.704381 47 50 51
-0.352292 -0.198132 0.704380 117 120 121
-0.352292 -0.198142 0.704382 104 109 112
-0.352292 -0.198139 0.704381 58 61 64
-0.352292 -0.198139 0.704381 38 41 42
-0.352292 -0.198140 0.704382 49 54 57
-0.352293 -0.198149 0.704383 67 70 71
-0.352291 -0.198134 0.704381 136 139 140
-0.352292 -0.198146 0.704383 126 131 134
-0.352292 -0.198137 0.704382 59 64 65
-0.352291 -0.198134 0.704381 114 117 120
-0.352292 -0.198140 0.704382 120 123 126
-0.352292 -0.198145 0.704383 110 113 114
-0.352292 -0.198144 0.704383 45 50 51
-0.352291 -0.198135 0.704382 132 135 138
-0.352292 -0.198142 0.704383 99 104 105
-0.352291 -0.198134 0.704382 56 59 60
-0.352291 -0.198136 0.704382 47 50 51
-0.352291 -0.198136 0.704382 47 50 51
-0.352292 -0.198142 0.704383 99 104 105
-0.352292 -0.198138 0.704383 54 59 62
-0.352291 -0.198137 0.704382 123 128 129
-0.352291 -0.198136 0.704383 64 67 70
-0.352291 -0.198131 0.704382 64 67 70
-0.352291 -0.198137 0.704383 124 127 128
-0.352291 -0.198135 0.704383 123 126 127
-0.352291 -0.198135 0.704383 123 126 127
-0.352291 -0.198129 0.704382 61 64 67
-0.352291 -0.198137 0.704383 116 121 122
-0.352292 -0.198142 0.704384 60 63 66
-0.352291 -0.198133 0.704383 57 60 63
-0.352292 -0.198144 0.704385 49 54 57
-0.352292 -0.198145 0.704385 48 49 50
-0.352291 -0.198136 0.704384 115 118 119
-0.352291 -0.198139 0.704385 54 57 58
-0.352291 -0.198139 0.704385 41 46 47
-0.352291 -0.198137 0.704385 115 118 119
-0.352291 -0.198137 0.704385 63 66 67
-0.352292 -0.198150 0.704387 105 110 111
-0.352291 -0.198135 0.704385 131 134 137
-0.352291 -0.198146 0.704386 110 115 118
-0.352292 -0.198150 0.704387 61 64 65
-0.352291 -0.198140 0.704386 61 66 67
-0.352291 -0.198146 0.704387 62 65 66
-0.352291 -0.198148 0.704387 51 56 57
-0.352291 -0.198137 0.704385 123 128 129
-0.352291 -0.198147 0.704387 108 111 112
-0.352291 -0.198140 0.704386 116 119 120
-0.352291 -0.198141 0.704386 115 120 121
-0.352291 -0.198139 0.704386 115 118 119
-0.352291 -0.198141 0.704387 59 62 63
-0.352291 -0.198141 0.704387 59 62 63
-0.352292 -0.198151 0.704388 122 123 126
-0.352292 -0.198151 0.704388 122 123 126
-0.352291 -0.198143 0.704387 64 69 72
-0.352291 -0.198147 0.704388 113 116 119
-0.352291 -0.198147 0.704388 113 116 119
-0.352291 -0.198146 0.704388 102 110 110
-0.352290 -0.198138 0.704387 146 149 152
-0.352291 -0.198151 0.704389 104 107 110
-0.352290 -0.198136 0.704387 45 48 49
-0.352291 -0.198150 0.704389 58 66 68
-0.352290 -0.198140 0.704388 109 110 111
-0.352290 -0.198136 0.704387 60 63 64
-0.352291 -0.198146 0.704389 65 68 69
-0.352290 -0.198142 0.704388 120 123 124
-0.352290 -0.198142 0.704388 120 123 124
-0.352291 -0.198146 0.704389 111 116 117
-0.352291 -0.198150 0.704390 102 105 108
-0.352290 -0.198143 0.704389 130 135 136
-0.352290 -0.198143 0.704389 39 44 45
-0.352290 -0.198146 0.704390 108 113 114
-0.352290 -0.198139 0.704389 55 60 63
-0.352290 -0.198146 0.704390 66 69 72
-0.352290 -0.198141 0.704389 120 123 126
-0.352290 -0.198141 0.704389 120 123 126
-0.352290 -0.198142 0.704389 133 136 137
-0.352290 -0.198142 0.704389 133 136 137
-0.352290 -0.198141 0.704389 63 66 69
-0.352290 -0.198140 0.704389 120 125 126
-0.352290 -0.198140 0.704389 53 58 59
-0.352291 -0.198150 0.704391 58 66 68
-0.352290 -0.198141 0.704390 64 67 70
-0.352291 -0.198151 0.704391 118 121 122
-0.352291 -0.198151 0.704391 55 60 61
-0.352290 -0.198146 0.704391 134 137 138
-0.352290 -0.198139 0.704390 115 118 121
-0.352290 -0.198139 0.704390 115 118 121
-0.352290 -0.198139 0.704390 115 118 121
-0.352289 -0.198137 0.704390 95 98 99
-0.352290 -0.198142 0.704390 50 55 56
-0.352290 -0.198142 0.704391 129 134 135
-0.352290 -0.198146 0.704392 54 59 62
-0.352290 -0.198142 0.704391 53 58 61
-0.352290 -0.198146 0.704392 108 113 116
-0.352290 -0.198146 0.704392 108 113 116
-0.352290 -0.198147 0.704392 121 126 127
-0.352290 -0.198147 0.704392 121 126 127
-0.352289 -0.198142 0.704391 106 111 114
-0.352290 -0.198148 0.704392 119 124 125
-0.352290 -0.198149 0.704393 111 114 115
-0.352290 -0.198145 0.704392 120 125 128
-0.352289 -0.198140 0.704392 99 102 103
-0.352289 -0.198139 0.704392 133 136 137
-0.352290 -0.198146 0.704393 57 58 59
-0.352290 -0.198147 0.704393 138 143 144
-0.352289 -0.198135 0.704391 122 125 126
-0.352289 -0.198143 0.704393 118 123 124
-0.352289 -0.198138 0.704392 114 119 122
-0.352290 -0.198149 0.704394 54 59 62
-0.352290 -0.198150 0.704394 116 119 120
-0.352289 -0.198140 0.704393 55 58 59
-0.352290 -0.198150 0.704394 62 65 66
-0.352290 -0.198148 0.704394 119 122 123
-0.352290 -0.198148 0.704394 119 122 123
-0.352289 -0.198138 0.704392 49 54 57
-0.352289 -0.198143 0.704393 122 125 126
-0.352289 -0.198148 0.704394 57 60 61
-0.352289 -0.198145 0.704394 110 113 114
-0.352289 -0.198143 0.704394 102 103 104
-0.352289 -0.198144 0.704394 132 135 136
-0.352289 -0.198149 0.704395 96 101 102
-0.352289 -0.198142 0.704394 94 99 100
-0.352289 -0.198143 0.704394 143 146 147
-0.352289 -0.198149 0.704395 58 63 66
-0.352289 -0.198140 0.704394 39 44 47
-0.352289 -0.198141 0.704394 60 63 64
-0.352289 -0.198146 0.704395 56 61 62
-0.352289 -0.198144 0.704396 120 123 124
-0.352289 -0.198144 0.704396 111 112 113
-0.352288 -0.198142 0.704395 94 97 98
-0.352288 -0.198144 0.704396 50 53 54
-0.352289 -0.198148 0.704397 55 58 59
-0.352289 -0.198153 0.704398 133 138 141
-0.352289 -0.198153 0.704397 59 62 63
-0.352288 -0.198144 0.704396 111 114 115
-0.352289 -0.198150 0.704397 98 106 106
-0.352288 -0.198143 0.704396 56 59 60
-0.352289 -0.198147 0.704397 54 59 62
-0.352288 -0.198142 0.704396 121 126 129
-0.352288 -0.198142 0.704396 53 58 59
-0.352288 -0.198143 0.704396 45 48 49
-0.352289 -0.198152 0.704398 60 65 66
-0.352289 -0.198152 0.704398 108 111 112
-0.352289 -0.198149 0.704398 55 58 61
-0.352288 -0.198148 0.704398 113 118 119
-0.352288 -0.198143 0.704397 98 101 104
-0.352288 -0.198143 0.704397 50 53 56
-0.352289 -0.198159 0.704400 107 112 113
-0.352289 -0.198159 0.704400 107 112 113
-0.352288 -0.198143 0.704398 110 113 114
-0.352289 -0.198155 0.704400 114 119 120
-0.352288 -0.198142 0.704398 109 112 113
-0.352288 -0.198140 0.704398 115 118 119
-0.352288 -0.198142 0.704398 35 38 39
-0.352288 -0.198145 0.704399 42 50 52
-0.352289 -0.198154 0.704400 105 106 109
-0.352288 -0.198147 0.704399 54 57 58
-0.352287 -0.198139 0.704398 52 53 54
-0.352288 -0.198148 0.704400 47 48 49
-0.352288 -0.198152 0.704400 124 129 130
-0.352288 -0.198150 0.704401 64 67 70
-0.352288 -0.198145 0.704400 44 49 50
-0.352288 -0.198153 0.704401 128 131 132
-0.352288 -0.198146 0.704400 90 93 94
-0.352288 -0.198147 0.704400 44 47 48
-0.352288 -0.198155 0.704401 63 68 69
-0.352288 -0.198149 0.704400 55 56 57
-0.352288 -0.198156 0.704402 119 127 129
-0.352288 -0.198156 0.704402 119 127 129
-0.352288 -0.198151 0.704402 117 122 123
-0.352288 -0.198151 0.704402 117 122 123
-0.352288 -0.198151 0.704403 55 58 59
-0.352287 -0.198149 0.704402 58 61 64
-0.352287 -0.198152 0.704403 51 54 55
-0.352288 -0.198154 0.704403 60 61 62
-0.352288 -0.198154 0.704404 128 129 130
-0.352287 -0.198140 0.704401 60 63 66
-0.352287 -0.198140 0.704401 60 63 66
-0.352286 -0.198140 0.704402 99 102 103
-0.352287 -0.198149 0.704403 52 55 58
-0.352287 -0.198154 0.704404 120 123 126
-0.352287 -0.198154 0.704404 120 123 126
-0.352287 -0.198145 0.704403 43 46 47
-0.352287 -0.198153 0.704404 107 112 113
-0.352287 -0.198155 0.704405 58 61 62
-0.352287 -0.198152 0.704405 48 51 52
-0.352287 -0.198151 0.704405 61 62 63
-0.352288 -0.198163 0.704407 59 62 63
-0.352286 -0.198145 0.704404 105 109 108
-0.352286 -0.198144 0.704404 120 125 126
-0.352287 -0.198154 0.704406 114 117 120
-0.352287 -0.198151 0.704406 113 118 119
-0.352287 -0.198151 0.704406 49 54 55
-0.352286 -0.198147 0.704405 110 115 116
-0.352286 -0.198142 0.704404 46 49 50
-0.352286 -0.198142 0.704404 46 49 50
-0.352287 -0.198155 0.704406 130 133 134
-0.352286 -0.198150 0.704406 56 61 64
-0.352287 -0.198153 0.704406 53 58 59
-0.352286 -0.198142 0.704405 39 42 43
-0.352286 -0.198142 0.704405 39 42 43
-0.352286 -0.198147 0.704406 71 74 75
-0.352287 -0.198153 0.704407 54 56 55
-0.352287 -0.198154 0.704407 116 117 118
-0.352286 -0.198148 0.704406 67 70 73
-0.352286 -0.198148 0.704406 111 116 119
-0.352286 -0.198143 0.704406 122 125 126
-0.352286 -0.198150 0.704407 61 64 67
-0.352286 -0.198148 0.704407 134 137 140
-0.352286 -0.198147 0.704407 60 63 64
-0.352286 -0.198152 0.704408 103 102 100
-0.352286 -0.198151 0.704408 54 56 55
-0.352286 -0.198147 0.704407 107 112 113
-0.352286 -0.198147 0.704407 107 112 113
-0.352286 -0.198147 0.704407 39 42 43
-0.352287 -0.198158 0.704409 224 133 119
-0.352286 -0.198147 0.704407 47 50 51
-0.352286 -0.198146 0.704407 121 126 127
-0.352286 -0.198147 0.704408 141 144 147
-0.352287 -0.198160 0.704410 224 125 115
-0.352285 -0.198141 0.704407 48 51 52
-0.352286 -0.198147 0.704408 103 106 109
-0.352287 -0.198161 0.704410 221 124 109
-0.352286 -0.198150 0.704408 102 105 102
-0.352286 -0.198160 0.704411 245 147 134
-0.352285 -0.198143 0.704409 93 95 94
-0.352284 -0.198138 0.704411 107 88 80
-0.352283 -0.198137 0.704412 109 82 72
-0.352284 -0.198150 0.704414 211 118 104
-0.352285 -0.198173 0.704422 218 134 127
-0.352285 -0.198175 0.704423 81 78 76
-0.352284 -0.198172 0.704423 206 116 110
-0.352281 -0.198134 0.704418 77 28 21
-0.352284 -0.198168 0.704423 54 61 65
-0.352281 -0.198134 0.704419 131 123 119
-0.352281 -0.198134 0.704419 131 123 119
-0.352284 -0.198177 0.704425 77 80 81
-0.352281 -0.198132 0.704419 76 26 14
-0.352284 -0.198176 0.704427 226 199 181
-0.352281 -0.198134 0.704420 119 88 74
-0.352284 -0.198175 0.704427 190 113 105
-0.352284 -0.198179 0.704428 100 50 46
-0.352284 -0.198184 0.704429 173 167 166
-0.352283 -0.198176 0.704429 211 184 169
-0.352284 -0.198186 0.704430 213 158 148
-0.352284 -0.198186 0.704430 213 158 148
-0.352284 -0.198188 0.704431 194 169 171
-0.352284 -0.198188 0.704431 194 169 171
-0.352283 -0.198175 0.704430 208 177 162
-0.352282 -0.198166 0.704429 189 190 199
-0.352282 -0.198166 0.704429 189 190 199
-0.352282 -0.198168 0.704430 222 247 254
-0.352282 -0.198169 0.704430 45 54 58
-0.352283 -0.198181 0.704431 125 43 26
-0.352281 -0.198154 0.704427 245 151 141
-0.352283 -0.198183 0.704432 117 65 54
-0.352282 -0.198166 0.704430 239 255 255
-0.352284 -0.198188 0.704433 127 88 74
-0.352282 -0.198173 0.704431 29 31 30
-0.352281 -0.198155 0.704429 79 80 81
-0.352283 -0.198188 0.704434 89 34 21
-0.352283 -0.198188 0.704434 89 34 21
-0.352281 -0.198166 0.704431 241 255 255
-0.352282 -0.198169 0.704432 203 206 214
-0.352282 -0.198169 0.704432 203 206 214
-0.352281 -0.198168 0.704432 200 210 217
-0.352281 -0.198168 0.704432 200 210 217
