ply
format ascii 1.0
element vertex 1121
property float x
property float y
property float z
property uchar red
property uchar green
property uchar blue
end_header
-35.877800 -20.333645 71.846672 93 146 197
-35.877792 -20.333700 71.846672 0 70 118
-35.877773 -20.333666 71.846664 30 66 124
-35.877663 -20.333639 71.846474 7 42 100
-35.877724 -20.333666 71.846634 92 137 191
-35.877747 -20.333719 71.846680 15 70 125
-35.877762 -20.333481 71.846733 16 99 145
-35.877762 -20.333481 71.846733 16 99 145
-35.877533 -20.333626 71.846306 84 143 194
-35.877640 -20.333586 71.846519 28 87 138
-35.877640 -20.333586 71.846519 28 87 138
-35.877708 -20.333694 71.846680 96 142 194
-35.877609 -20.333662 71.846504 28 85 134
-35.877632 -20.333647 71.846565 80 144 193
-35.877632 -20.333675 71.846634 10 69 120
-35.877548 -20.333260 71.846542 11 49 107
-35.878216 -20.334913 71.847878 9 10 8
-35.877583 -20.333242 71.846619 24 78 130
-35.877583 -20.333778 71.846626 20 93 142
-35.877590 -20.334213 71.846657 130 207 245
-35.877590 -20.334213 71.846657 130 207 245
-35.877621 -20.333422 71.846725 25 75 128
-35.877678 -20.334139 71.846840 143 170 203
-35.877682 -20.334370 71.846855 21 19 30
-35.877445 -20.328379 71.846458 235 240 241
-35.877647 -20.331654 71.846848 139 182 216
-35.877617 -20.333456 71.846786 17 80 131
-35.877602 -20.333317 71.846764 89 140 196
-35.877567 -20.333277 71.846718 22 75 130
-35.877567 -20.333277 71.846718 22 75 130
-35.877514 -20.333277 71.846664 37 82 136
-35.877483 -20.333263 71.846603 37 82 136
-35.877556 -20.333284 71.846756 88 136 189
-35.877556 -20.333284 71.846756 88 136 189
-35.877537 -20.333647 71.846733 9 79 127
-35.877575 -20.333794 71.846840 85 155 202
-35.877518 -20.333332 71.846748 39 101 149
-35.877529 -20.334435 71.846779 116 125 129
-35.877506 -20.333433 71.846741 14 69 119
-35.877449 -20.333448 71.846642 85 158 204
-35.877411 -20.329920 71.846596 133 184 217
-35.877460 -20.334404 71.846695 181 181 176
-35.877491 -20.333515 71.846764 72 152 194
-35.877506 -20.333475 71.846802 104 150 202
-35.877506 -20.333475 71.846802 104 150 202
-35.877491 -20.333530 71.846802 16 89 136
-35.877491 -20.333530 71.846802 16 89 136
-35.877548 -20.332945 71.846931 115 184 223
-35.877426 -20.333723 71.846703 94 143 194
-35.877522 -20.331261 71.846893 136 190 226
-35.877483 -20.333748 71.846840 21 72 123
-35.877483 -20.333496 71.846848 44 93 144
-35.877438 -20.334356 71.846756 16 20 19
-35.877472 -20.333904 71.846832 33 59 114
-35.877426 -20.333906 71.846748 81 155 198
-35.877480 -20.333773 71.846870 27 76 127
-35.877506 -20.332245 71.846931 130 201 240
-35.877407 -20.333820 71.846733 67 153 194
-35.877361 -20.333689 71.846687 7 83 130
-35.877411 -20.334236 71.846802 25 24 22
-35.877426 -20.332539 71.846848 74 157 202
-35.877159 -20.333744 71.846313 81 147 194
-35.877506 -20.331408 71.847046 119 164 202
-35.877342 -20.333458 71.846718 24 92 139
-35.877373 -20.333860 71.846786 5 66 117
-35.877392 -20.333376 71.846825 117 183 226
-35.877560 -20.331423 71.847160 116 167 204
-35.877419 -20.334417 71.846886 26 28 27
-35.877380 -20.333416 71.846832 107 161 203
-35.877399 -20.333757 71.846870 25 71 123
-35.877403 -20.333448 71.846886 22 67 113
-35.878777 -20.333321 71.849625 71 150 182
-35.877357 -20.333849 71.846802 90 143 198
-35.877407 -20.332539 71.846909 12 101 145
-35.877396 -20.332340 71.846893 109 160 196
-35.877380 -20.333452 71.846870 95 157 200
-35.877357 -20.333490 71.846832 94 150 196
-35.877266 -20.333836 71.846649 95 146 197
-35.877472 -20.333021 71.847054 124 184 219
-35.877392 -20.333897 71.846909 33 82 133
-35.877392 -20.333763 71.846931 75 149 192
-35.877331 -20.332317 71.846840 121 163 194
-35.877331 -20.331642 71.846855 72 152 194
-35.877331 -20.333656 71.846848 24 81 131
-35.877377 -20.334520 71.846962 191 203 210
-35.877308 -20.333485 71.846848 28 88 136
-35.877319 -20.332989 71.846863 174 215 248
-35.877365 -20.333664 71.846962 81 147 194
-35.877342 -20.333794 71.846954 14 70 122
-35.877335 -20.332504 71.846931 112 161 194
-35.877327 -20.333660 71.846947 19 71 124
-35.877304 -20.333616 71.846931 99 150 201
-35.877541 -20.333183 71.847443 171 206 238
-35.877178 -20.333511 71.846725 98 164 212
-35.877277 -20.333626 71.846924 26 86 134
-35.877247 -20.332544 71.846886 111 168 207
-35.877285 -20.333601 71.846970 44 89 141
-35.877190 -20.333588 71.846794 103 152 203
-35.877270 -20.331474 71.846992 192 225 253
-35.877209 -20.333111 71.846893 132 168 203
-35.877159 -20.332045 71.846809 174 203 236
-35.877441 -20.330355 71.847374 184 203 225
-35.877441 -20.330355 71.847374 184 203 225
-35.877235 -20.333090 71.846962 188 226 255
-35.877209 -20.331514 71.846977 186 227 255
-35.877369 -20.331739 71.847298 170 204 238
-35.877316 -20.332457 71.847229 223 234 250
-35.877254 -20.332661 71.847137 190 225 255
-35.877178 -20.332287 71.847015 161 198 231
-35.877171 -20.332640 71.847023 173 218 250
-35.877308 -20.331884 71.847366 152 187 219
-35.877094 -20.332035 71.846939 68 151 196
-35.877068 -20.331148 71.846970 27 24 22
-35.877068 -20.331148 71.846970 27 24 22
-35.877087 -20.332514 71.847069 0 37 62
-35.877205 -20.334562 71.847305 22 21 19
-35.877197 -20.333422 71.847305 109 159 199
-35.877098 -20.333340 71.847137 167 216 249
-35.877090 -20.333378 71.847168 158 211 240
-35.877113 -20.331972 71.847221 165 209 243
-35.877029 -20.330528 71.847069 205 226 246
-35.877056 -20.329647 71.847137 154 189 221
-35.877090 -20.332775 71.847206 100 184 215
-35.877102 -20.333529 71.847237 172 213 246
-35.877102 -20.333529 71.847237 172 213 246
-35.877090 -20.332684 71.847229 0 63 101
-35.877041 -20.332724 71.847145 123 185 219
-35.877155 -20.332134 71.847404 107 156 198
-35.876980 -20.330639 71.847061 134 183 216
-35.877018 -20.330553 71.847153 195 215 237
-35.877018 -20.330553 71.847153 195 215 237
-35.876984 -20.332756 71.847099 84 130 148
-35.877129 -20.332659 71.847397 126 160 192
-35.877022 -20.333637 71.847183 133 200 239
-35.877144 -20.332870 71.847473 105 139 151
-35.876957 -20.334944 71.847107 188 220 252
-35.876995 -20.333765 71.847191 152 212 252
-35.876995 -20.333765 71.847191 152 212 252
-35.876892 -20.334938 71.846992 135 170 202
-35.876942 -20.332705 71.847099 98 104 117
-35.876984 -20.335011 71.847183 166 193 226
-35.877041 -20.332809 71.847313 140 140 140
-35.877022 -20.331606 71.847313 5 7 6
-35.877022 -20.331606 71.847313 5 7 6
-35.877029 -20.332727 71.847336 20 74 110
-35.876968 -20.332792 71.847214 194 177 174
-35.876972 -20.332834 71.847221 42 117 144
-35.876926 -20.332788 71.847130 214 224 230
-35.876839 -20.330568 71.846977 185 213 238
-35.876839 -20.330538 71.846977 176 199 225
-35.877056 -20.332506 71.847427 98 169 208
-35.876957 -20.332781 71.847229 217 207 208
-35.876820 -20.332775 71.846962 51 123 149
-35.876976 -20.332829 71.847282 135 125 126
-35.876842 -20.333048 71.847023 65 157 201
-35.876865 -20.328083 71.847084 50 42 38
-35.876892 -20.328098 71.847137 51 43 39
-35.877007 -20.331829 71.847366 127 170 204
-35.876766 -20.328892 71.846886 37 34 32
-35.876762 -20.333151 71.846939 146 154 161
-35.876995 -20.331820 71.847412 117 159 196
-35.876911 -20.332840 71.847252 155 146 145
-35.876911 -20.332840 71.847252 155 146 145
-35.876842 -20.332882 71.847122 60 150 191
-35.876759 -20.333118 71.846954 163 153 154
-35.876812 -20.333223 71.847092 103 131 160
-35.876793 -20.333075 71.847054 22 67 97
-35.876877 -20.333261 71.847221 103 131 160
-35.876923 -20.334032 71.847328 41 35 34
-35.876850 -20.332888 71.847183 2 18 29
-35.876953 -20.333967 71.847397 79 138 176
-35.876694 -20.329329 71.846901 8 8 8
-35.876961 -20.332865 71.847427 70 99 125
-35.876938 -20.331812 71.847404 67 142 175
-35.877007 -20.332886 71.847534 34 79 116
-35.876999 -20.331881 71.847534 107 172 199
-35.876842 -20.333199 71.847221 122 153 192
-35.877041 -20.331865 71.847618 69 134 154
-35.876736 -20.328461 71.847031 11 9 9
-35.876976 -20.331848 71.847511 144 176 190
-35.877003 -20.331886 71.847580 32 74 92
-35.876850 -20.333397 71.847298 18 20 19
-35.876850 -20.333397 71.847298 18 20 19
-35.876930 -20.331905 71.847519 7 15 17
-35.876930 -20.331905 71.847519 7 15 17
-35.876923 -20.333424 71.847511 4 5 13
-35.876709 -20.332895 71.847084 36 75 113
-35.876984 -20.334072 71.847641 79 146 180
-35.876942 -20.333822 71.847572 10 12 11
-35.876896 -20.333988 71.847488 65 150 195
-35.876915 -20.334105 71.847527 37 31 30
-35.876640 -20.332373 71.846992 55 146 192
-35.876873 -20.335161 71.847473 92 135 178
-35.876900 -20.331842 71.847534 16 64 94
-35.876724 -20.335115 71.847176 193 225 255
-35.876900 -20.334072 71.847549 255 254 255
-35.876839 -20.334122 71.847450 95 96 94
-35.876877 -20.334059 71.847542 129 120 123
-35.876892 -20.334229 71.847572 33 28 30
-35.876896 -20.334181 71.847618 109 105 105
-35.876823 -20.332756 71.847473 20 91 143
-35.876865 -20.331898 71.847565 97 100 108
-35.876785 -20.334276 71.847397 174 177 180
-35.876865 -20.334116 71.847565 253 255 254
-35.876877 -20.331963 71.847595 180 181 182
-35.876740 -20.334101 71.847351 97 89 90
-35.876740 -20.334101 71.847351 97 89 90
-35.876953 -20.334253 71.847786 13 23 25
-35.876431 -20.332161 71.846748 60 136 177
-35.876698 -20.328444 71.847298 10 13 21
-35.876839 -20.334209 71.847572 121 131 137
-35.876663 -20.335201 71.847221 188 222 255
-35.876831 -20.334061 71.847557 29 29 29
-35.876789 -20.331959 71.847488 169 171 170
-35.876450 -20.332235 71.846825 34 53 78
-35.876770 -20.332922 71.847466 38 91 147
-35.876770 -20.332922 71.847466 38 91 147
-35.876694 -20.333275 71.847313 59 152 196
-35.876728 -20.334202 71.847382 21 27 34
-35.876743 -20.334288 71.847420 120 105 105
-35.876644 -20.331842 71.847237 101 116 137
-35.876785 -20.333683 71.847519 43 36 35
-35.876595 -20.332718 71.847137 91 144 199
-35.876816 -20.332991 71.847595 30 92 146
-35.876694 -20.335268 71.847359 184 224 255
-35.876858 -20.332994 71.847687 85 138 194
-35.876858 -20.332994 71.847687 85 138 194
-35.876774 -20.334467 71.847527 97 97 97
-35.876751 -20.332926 71.847496 40 91 147
-35.876732 -20.333092 71.847458 12 89 140
-35.876717 -20.331964 71.847435 141 139 139
-35.876560 -20.328306 71.847130 240 246 240
-35.876659 -20.334372 71.847343 116 103 100
-35.876595 -20.332567 71.847206 57 150 193
-35.876759 -20.333094 71.847534 24 88 142
-35.876759 -20.333094 71.847534 24 88 142
-35.876377 -20.332882 71.846840 27 87 141
-35.876377 -20.332882 71.846840 27 87 141
-35.876732 -20.334986 71.847572 103 167 210
-35.876488 -20.330866 71.847099 106 172 209
-35.876701 -20.332911 71.847534 15 83 137
-35.876701 -20.332911 71.847534 15 83 137
-35.876610 -20.329716 71.847351 144 191 223
-35.876678 -20.333120 71.847488 98 145 202
-35.876549 -20.332989 71.847252 38 96 150
-35.876350 -20.332407 71.846863 147 137 130
-35.876663 -20.335449 71.847496 136 187 224
-35.876663 -20.333153 71.847504 80 148 201
-35.876656 -20.333090 71.847496 32 79 135
-35.876396 -20.335663 71.846985 74 154 196
-35.876610 -20.331968 71.847420 90 109 131
-35.876453 -20.332584 71.847115 32 77 105
-35.876675 -20.332041 71.847557 182 177 181
-35.876621 -20.334558 71.847466 137 113 108
-35.876560 -20.329905 71.847351 29 26 24
-35.876637 -20.333113 71.847496 81 138 196
-35.876640 -20.335028 71.847504 10 14 13
-35.876640 -20.335028 71.847504 10 14 13
-35.876572 -20.333145 71.847382 79 152 201
-35.876637 -20.333141 71.847511 88 138 198
-35.876457 -20.331993 71.847153 6 9 12
-35.876671 -20.333004 71.847588 21 93 145
-35.876667 -20.332111 71.847588 4 7 10
-35.876682 -20.334711 71.847618 17 17 17
-35.876675 -20.333136 71.847610 87 153 206
-35.876602 -20.332861 71.847473 14 74 122
-35.876461 -20.332533 71.847191 139 130 129
-35.876686 -20.335777 71.847641 168 206 237
-35.876587 -20.332031 71.847458 134 129 131
-35.876694 -20.334997 71.847664 215 207 210
-35.876694 -20.334997 71.847664 215 207 210
-35.876572 -20.330164 71.847435 18 16 16
-35.876625 -20.333582 71.847549 19 18 26
-35.876595 -20.333136 71.847496 91 139 199
-35.876698 -20.333214 71.847702 42 95 150
-35.876663 -20.333214 71.847641 90 153 204
-35.876637 -20.334684 71.847595 215 206 205
-35.876446 -20.332396 71.847237 10 61 94
-35.876568 -20.332891 71.847473 25 83 129
-35.876747 -20.334549 71.847839 38 33 29
-35.876747 -20.334549 71.847839 38 33 29
-35.876747 -20.334549 71.847839 38 33 29
-35.876568 -20.333582 71.847488 12 12 28
-35.876564 -20.333111 71.847481 70 140 188
-35.876614 -20.333164 71.847580 31 90 141
-35.876617 -20.333193 71.847610 79 135 187
-35.876495 -20.334583 71.847366 107 100 101
-35.876545 -20.334688 71.847466 10 11 9
-35.876423 -20.332508 71.847244 16 42 59
-35.876633 -20.332895 71.847656 6 53 99
-35.876602 -20.335180 71.847595 8 9 7
-35.876648 -20.334976 71.847694 146 133 130
-35.876564 -20.333557 71.847542 87 172 212
-35.876614 -20.333208 71.847641 29 89 143
-35.876614 -20.333208 71.847641 29 89 143
-35.876488 -20.329670 71.847389 0 53 82
-35.876575 -20.333492 71.847557 122 189 229
-35.876606 -20.333662 71.847641 0 2 21
-35.876556 -20.333157 71.847542 29 92 149
-35.876637 -20.330339 71.847717 204 221 227
-35.876579 -20.332125 71.847626 146 155 159
-35.876522 -20.335558 71.847504 41 134 183
-35.876392 -20.332470 71.847260 21 48 77
-35.876411 -20.332426 71.847313 12 54 85
-35.876511 -20.331688 71.847511 40 100 154
-35.876587 -20.334961 71.847679 194 186 182
-35.876537 -20.334963 71.847572 178 169 168
-35.876537 -20.334963 71.847572 178 169 168
-35.876411 -20.332611 71.847336 11 55 96
-35.876453 -20.332382 71.847427 72 117 149
-35.876678 -20.335085 71.847878 13 10 12
-35.876522 -20.330164 71.847572 240 245 246
-35.876522 -20.330164 71.847572 240 245 246
-35.876472 -20.329769 71.847481 142 137 133
-35.876518 -20.334978 71.847572 215 211 211
-35.876518 -20.332127 71.847580 128 134 142
-35.876507 -20.329899 71.847572 250 255 255
-35.876396 -20.332796 71.847343 6 48 89
-35.876385 -20.332310 71.847321 72 111 144
-35.876568 -20.334988 71.847694 140 128 128
-35.876488 -20.331034 71.847534 124 153 184
-35.876308 -20.335537 71.847168 53 54 55
-35.876545 -20.335358 71.847656 66 124 170
-35.876392 -20.333195 71.847351 26 96 144
-35.876453 -20.333210 71.847481 76 138 187
-35.876133 -20.330091 71.846848 29 21 24
-35.876358 -20.336184 71.847305 47 39 35
-35.876396 -20.332670 71.847382 0 32 70
-35.876507 -20.332798 71.847610 0 40 77
-35.876507 -20.332798 71.847610 0 40 77
-35.876465 -20.331856 71.847527 36 101 151
-35.876453 -20.332418 71.847511 0 30 50
-35.876308 -20.335533 71.847214 136 129 130
-35.876308 -20.335533 71.847214 136 129 130
-35.876503 -20.333590 71.847610 162 219 255
-35.876579 -20.333649 71.847771 136 195 233
-35.876514 -20.332186 71.847656 10 35 50
-35.876476 -20.333757 71.847572 17 11 17
-35.876419 -20.333504 71.847466 176 226 255
-35.876400 -20.330967 71.847443 248 255 255
-35.876472 -20.331823 71.847603 28 76 129
-35.876472 -20.333696 71.847610 159 227 255
-35.876472 -20.333696 71.847610 159 227 255
-35.876427 -20.335758 71.847519 44 38 37
-35.876427 -20.332848 71.847527 1 41 76
-35.876427 -20.332848 71.847527 1 41 76
-35.876442 -20.335011 71.847572 6 8 7
-35.876560 -20.331402 71.847832 66 150 192
-35.876560 -20.331402 71.847832 66 150 192
-35.876503 -20.330925 71.847733 59 132 171
-35.876499 -20.331911 71.847717 28 77 134
-35.876499 -20.331911 71.847717 28 77 134
-35.876278 -20.332588 71.847290 122 182 223
-35.876419 -20.329939 71.847595 39 36 34
-35.876431 -20.333849 71.847618 20 19 33
-35.876396 -20.333447 71.847549 175 201 232
-35.876404 -20.333418 71.847588 127 186 224
-35.876469 -20.334974 71.847717 199 192 193
-35.876469 -20.334974 71.847717 199 192 193
-35.876373 -20.331686 71.847565 44 103 154
-35.876373 -20.331686 71.847565 44 103 154
-35.876530 -20.332254 71.847893 6 21 34
-35.876408 -20.329876 71.847664 195 187 188
-35.876476 -20.333914 71.847794 107 157 197
-35.876339 -20.330912 71.847534 39 55 63
-35.876308 -20.335577 71.847473 47 139 185
-35.876427 -20.331921 71.847710 21 89 142
-35.876427 -20.331921 71.847710 21 89 142
-35.876369 -20.334967 71.847595 132 137 140
-35.876431 -20.333838 71.847725 90 165 208
-35.876434 -20.333956 71.847778 22 27 37
-35.876369 -20.332312 71.847664 73 117 149
-35.876404 -20.335821 71.847733 51 115 158
-35.876347 -20.331705 71.847641 52 93 150
-35.876347 -20.331705 71.847641 52 93 150
-35.876480 -20.332409 71.847923 35 79 113
-35.876480 -20.332409 71.847923 35 79 113
-35.876282 -20.330978 71.847534 130 178 214
-35.876205 -20.335873 71.847374 35 34 36
-35.876274 -20.334148 71.847527 255 251 250
-35.876431 -20.332069 71.847847 33 122 167
-35.876431 -20.332069 71.847847 33 122 167
-35.876209 -20.334085 71.847397 188 184 184
-35.876431 -20.333994 71.847855 97 117 135
-35.876381 -20.331902 71.847755 25 82 140
-35.876293 -20.335896 71.847603 224 227 228
-35.876354 -20.334000 71.847740 12 9 7
-35.876221 -20.334162 71.847473 36 33 31
-35.876301 -20.335875 71.847633 133 116 113
-35.876297 -20.333954 71.847633 160 168 170
-35.876266 -20.332338 71.847580 102 137 165
-35.876266 -20.332338 71.847580 102 137 165
-35.876221 -20.334070 71.847504 197 198 201
-35.876160 -20.335873 71.847412 40 33 34
-35.876240 -20.335840 71.847572 183 175 178
-35.876358 -20.334089 71.847809 36 37 38
-35.876297 -20.330029 71.847694 174 169 165
-35.876297 -20.330029 71.847694 174 169 165
-35.876362 -20.334038 71.847824 161 160 162
-35.876286 -20.330917 71.847687 243 237 236
-35.876350 -20.334005 71.847816 248 240 243
-35.876240 -20.335888 71.847603 221 219 219
-35.876274 -20.336031 71.847672 48 40 36
-35.876373 -20.332424 71.847870 92 121 147
-35.876335 -20.334013 71.847801 213 207 206
-35.876297 -20.331795 71.847733 21 89 137
-35.876297 -20.331795 71.847733 21 89 137
-35.876232 -20.333988 71.847603 86 86 86
-35.876282 -20.334038 71.847702 16 22 29
-35.876255 -20.334049 71.847656 24 35 44
-35.876286 -20.331707 71.847725 43 89 141
-35.876247 -20.334095 71.847664 124 122 122
-35.876255 -20.334169 71.847694 27 21 17
-35.876125 -20.335846 71.847450 105 122 128
-35.876152 -20.334021 71.847534 174 174 179
-35.876129 -20.328016 71.847504 14 13 11
-35.876152 -20.335855 71.847565 229 224 220
-35.876282 -20.330423 71.847832 14 13 11
-35.876282 -20.330423 71.847832 14 13 11
-35.876320 -20.335825 71.847916 23 83 123
-35.875969 -20.336121 71.847221 3 31 60
-35.876381 -20.332495 71.848061 49 77 102
-35.876381 -20.332495 71.848061 49 77 102
-35.876297 -20.334003 71.847908 34 35 33
-35.876179 -20.335958 71.847687 69 144 185
-35.876240 -20.332350 71.847862 177 184 194
-35.876240 -20.332350 71.847862 177 184 194
-35.876194 -20.335941 71.847771 57 72 87
-35.876045 -20.336088 71.847481 65 109 143
-35.876045 -20.336088 71.847481 65 109 143
-35.876324 -20.333879 71.848045 21 18 16
-35.876293 -20.330811 71.847992 84 137 176
-35.876450 -20.334162 71.848328 90 99 108
-35.875923 -20.336195 71.847298 40 36 36
-35.876072 -20.329924 71.847626 42 39 37
-35.876114 -20.332230 71.847740 7 9 8
-35.876244 -20.334352 71.848015 157 148 147
-35.876270 -20.334595 71.848061 154 154 159
-35.876202 -20.334150 71.847939 28 29 27
-35.876236 -20.334652 71.848007 111 112 113
-35.876171 -20.334644 71.847870 95 96 99
-35.876122 -20.334202 71.847778 140 138 138
-35.876240 -20.334202 71.848022 16 16 16
-35.876202 -20.334059 71.847946 214 207 208
-35.876274 -20.334181 71.848099 10 10 10
-35.876217 -20.334240 71.847992 44 43 45
-35.876190 -20.334738 71.847931 69 95 114
-35.876163 -20.331331 71.847885 52 77 138
-35.876163 -20.331331 71.847885 52 77 138
-35.876110 -20.334003 71.847794 176 168 169
-35.876213 -20.334145 71.847992 82 84 83
-35.876194 -20.334549 71.847954 192 192 192
-35.876198 -20.334803 71.847977 115 176 221
-35.876263 -20.334146 71.848099 26 29 26
-35.876289 -20.334473 71.848160 144 130 130
-35.876148 -20.334471 71.847878 95 80 82
-35.876183 -20.334694 71.847946 146 147 148
-35.876183 -20.334558 71.847954 255 253 255
-35.876259 -20.334789 71.848114 83 104 122
-35.876076 -20.333927 71.847748 116 133 148
-35.876225 -20.334755 71.848053 140 146 153
-35.876205 -20.334797 71.848000 94 161 205
-35.876133 -20.334209 71.847862 255 251 251
-35.876133 -20.334209 71.847862 255 251 251
-35.876289 -20.334793 71.848183 146 152 160
-35.876141 -20.334373 71.847878 120 107 109
-35.876194 -20.334606 71.848000 213 205 208
-35.876194 -20.334219 71.848000 63 58 62
-35.876087 -20.331600 71.847801 16 66 106
-35.876114 -20.334003 71.847855 111 105 101
-35.876129 -20.334473 71.847885 118 95 104
-35.875999 -20.330091 71.847633 145 133 123
-35.876106 -20.334797 71.847855 25 90 129
-35.876167 -20.334131 71.847984 234 233 231
-35.876167 -20.334131 71.847984 234 233 231
-35.876194 -20.334755 71.848038 14 15 29
-35.876156 -20.333981 71.847961 100 122 146
-35.876125 -20.334673 71.847916 44 33 36
-35.876156 -20.334551 71.847977 39 14 23
-35.876137 -20.334749 71.847946 80 123 166
-35.876041 -20.336042 71.847763 79 159 201
-35.876095 -20.330065 71.847893 216 231 242
-35.876469 -20.336288 71.848640 76 157 197
-35.876175 -20.334806 71.848076 0 13 33
-35.876118 -20.331673 71.847969 255 254 254
-35.876171 -20.334232 71.848091 247 241 240
-35.877327 -20.336781 71.850410 69 155 196
-35.876038 -20.334044 71.847855 121 124 125
-35.876156 -20.334301 71.848099 185 185 185
-35.876083 -20.334949 71.847961 0 38 68
-35.876087 -20.334249 71.847969 142 140 140
-35.875946 -20.332445 71.847694 71 154 199
-35.876053 -20.334009 71.847908 78 117 150
-35.876102 -20.334301 71.848022 189 187 187
-35.875801 -20.332216 71.847420 206 207 208
-35.875858 -20.332190 71.847542 42 57 78
-35.876118 -20.334293 71.848068 152 148 148
-35.876076 -20.333935 71.847992 76 70 69
-35.876125 -20.334286 71.848083 195 188 189
-35.876083 -20.330906 71.848015 174 199 220
-35.876026 -20.330956 71.847916 26 60 84
-35.875870 -20.329922 71.847610 36 37 40
-35.876225 -20.334396 71.848320 35 29 28
-35.875839 -20.333303 71.847557 54 117 157
-35.875977 -20.331636 71.847839 220 214 213
-35.875980 -20.334057 71.847855 217 216 214
-35.876011 -20.331043 71.847923 220 213 214
-35.876034 -20.334122 71.847969 33 27 26
-35.876007 -20.334255 71.847923 216 217 215
-35.876072 -20.330053 71.848061 37 35 35
-35.875980 -20.334944 71.847878 53 87 111
-35.875942 -20.334017 71.847816 204 199 195
-35.875874 -20.333357 71.847679 112 168 210
-35.876026 -20.335011 71.847984 0 23 41
-35.875961 -20.330185 71.847870 210 198 191
-35.875893 -20.333395 71.847740 59 115 161
-35.876110 -20.334177 71.848175 35 29 28
-35.875885 -20.333963 71.847717 62 68 76
-35.875927 -20.331852 71.847824 3 34 59
-35.876091 -20.334810 71.848145 6 6 6
-35.875782 -20.333946 71.847542 125 123 118
-35.875870 -20.333973 71.847717 195 191 191
-35.875889 -20.333492 71.847771 48 103 152
-35.875908 -20.333366 71.847809 55 103 149
-35.875908 -20.333366 71.847809 55 103 149
-35.875992 -20.331039 71.847992 45 48 65
-35.876030 -20.330072 71.848076 44 42 37
-35.875813 -20.333502 71.847641 52 108 154
-35.875992 -20.334993 71.848000 50 95 116
-35.875992 -20.334993 71.848000 50 95 116
-35.875992 -20.334993 71.848000 50 95 116
-35.875992 -20.331001 71.848015 145 177 209
-35.875980 -20.334055 71.848007 133 137 131
-35.875832 -20.333311 71.847733 48 106 152
-35.875832 -20.333311 71.847733 48 106 152
-35.876152 -20.335129 71.848381 0 23 42
-35.875912 -20.330177 71.847900 56 65 74
-35.875820 -20.332354 71.847725 86 90 103
-35.875820 -20.332354 71.847725 86 90 103
-35.875706 -20.332573 71.847496 1 22 40
-35.875957 -20.333960 71.848015 10 24 37
-35.876026 -20.333929 71.848167 34 31 29
-35.875816 -20.333483 71.847748 47 104 154
-35.875816 -20.333483 71.847748 47 104 154
-35.875977 -20.333990 71.848076 104 130 154
-35.875946 -20.334042 71.848015 234 231 233
-35.875748 -20.332462 71.847626 68 117 143
-35.875961 -20.333998 71.848053 65 97 120
-35.875774 -20.333500 71.847694 28 94 142
-35.876236 -20.334057 71.848625 33 31 31
-35.875866 -20.333960 71.847878 173 184 198
-35.875877 -20.330276 71.847923 42 35 36
-35.876068 -20.333910 71.848297 37 32 34
-35.875450 -20.330315 71.847084 13 12 10
-35.875690 -20.332357 71.847557 93 96 104
-35.875931 -20.334085 71.848068 47 41 40
-35.875782 -20.333622 71.847771 31 98 142
-35.875782 -20.333622 71.847771 31 98 142
-35.875874 -20.335009 71.847984 32 85 112
-35.875774 -20.334789 71.847794 252 255 255
-35.875927 -20.334078 71.848122 28 25 23
-35.875813 -20.333925 71.847908 106 177 216
-35.875862 -20.335072 71.848007 0 46 75
-35.875908 -20.335035 71.848106 0 22 44
-35.875866 -20.330194 71.848038 39 36 38
-35.875683 -20.332607 71.847687 126 141 144
-35.875759 -20.333624 71.847832 26 84 130
-35.875854 -20.335058 71.848030 8 45 67
-35.875854 -20.335058 71.848030 8 45 67
-35.875870 -20.335110 71.848061 10 81 114
-35.875763 -20.333963 71.847855 112 179 219
-35.875626 -20.334755 71.847580 0 3 4
-35.875694 -20.331051 71.847748 51 143 186
-35.875904 -20.334017 71.848160 72 155 195
-35.875599 -20.332706 71.847588 124 184 224
-35.875698 -20.333290 71.847809 47 85 143
-35.875942 -20.335135 71.848305 0 41 65
-35.875885 -20.335680 71.848190 54 149 193
-35.875725 -20.333630 71.847893 24 87 132
-35.875725 -20.333630 71.847893 24 87 132
-35.875996 -20.330845 71.848442 9 11 10
-35.875301 -20.330465 71.847061 9 11 10
-35.875694 -20.330004 71.847847 29 28 26
-35.875832 -20.334036 71.848129 18 22 27
-35.875854 -20.330793 71.848206 9 9 9
-35.875744 -20.334698 71.847984 85 82 80
-35.875702 -20.333715 71.847916 54 104 151
-35.875793 -20.334759 71.848099 116 110 109
-35.875778 -20.333975 71.848083 127 203 241
-35.875629 -20.333435 71.847847 40 100 148
-35.875774 -20.335146 71.848145 126 188 222
-35.875633 -20.333635 71.847862 45 105 154
-35.875549 -20.333649 71.847710 87 142 187
-35.875721 -20.331844 71.848061 5 25 43
-35.875839 -20.335150 71.848289 57 83 107
-35.875553 -20.332615 71.847725 8 19 35
-35.875721 -20.330311 71.848076 24 24 24
-35.875755 -20.331749 71.848152 104 111 125
-35.875828 -20.330276 71.848297 146 158 159
-35.875828 -20.330276 71.848297 146 158 159
-35.875626 -20.333704 71.847900 52 92 144
-35.875778 -20.330328 71.848213 22 22 22
-35.875790 -20.330183 71.848267 21 22 25
-35.875668 -20.333748 71.848076 43 106 151
-35.875668 -20.333748 71.848076 43 106 151
-35.875755 -20.335159 71.848267 50 80 109
-35.875603 -20.333691 71.847977 45 99 146
-35.875679 -20.334127 71.848129 46 40 36
-35.875610 -20.333843 71.848000 137 197 237
-35.875633 -20.334574 71.848053 34 31 29
-35.875633 -20.334574 71.848053 34 31 29
-35.875725 -20.330477 71.848244 251 253 252
-35.875729 -20.331881 71.848259 155 156 154
-35.875751 -20.335161 71.848305 58 89 114
-35.875710 -20.330748 71.848228 234 238 237
-35.875774 -20.334986 71.848366 6 8 7
-35.875675 -20.334000 71.848183 22 20 26
-35.875614 -20.333729 71.848061 47 94 142
-35.875614 -20.333729 71.848061 47 94 142
-35.875740 -20.335192 71.848312 192 230 255
-35.875698 -20.335203 71.848236 139 183 217
-35.875736 -20.330179 71.848320 235 233 233
-35.875736 -20.330179 71.848320 235 233 233
-35.875652 -20.334661 71.848145 133 131 131
-35.875591 -20.329487 71.848068 39 79 108
-35.875725 -20.330122 71.848328 28 29 37
-35.875687 -20.335163 71.848251 66 95 120
-35.875702 -20.329750 71.848289 137 184 216
-35.875702 -20.330366 71.848297 132 137 152
-35.875702 -20.330366 71.848297 132 137 152
-35.875629 -20.332827 71.848160 47 95 137
-35.875679 -20.335186 71.848259 174 209 241
-35.875679 -20.333778 71.848267 52 106 153
-35.875549 -20.333633 71.848015 40 95 145
-35.875698 -20.330469 71.848343 39 38 42
-35.875725 -20.334707 71.848389 255 255 254
-35.875725 -20.334707 71.848389 255 255 254
-35.875473 -20.332895 71.847900 6 79 125
-35.875206 -20.332554 71.847382 0 57 95
-35.875206 -20.332554 71.847382 0 57 95
-35.875698 -20.330357 71.848373 252 255 255
-35.875671 -20.330263 71.848343 16 15 17
-35.875671 -20.330263 71.848343 16 15 17
-35.875473 -20.333385 71.847946 45 107 156
-35.875473 -20.333385 71.847946 45 107 156
-35.875557 -20.329580 71.848129 233 241 241
-35.875671 -20.334625 71.848358 127 133 140
-35.875668 -20.330387 71.848358 89 138 171
-35.875610 -20.334482 71.848267 27 27 27
-35.875530 -20.334593 71.848129 126 120 119
-35.875565 -20.334610 71.848190 126 120 119
-35.875664 -20.335205 71.848404 2 68 105
-35.875637 -20.334539 71.848358 9 14 17
-35.875629 -20.330639 71.848351 28 27 25
-35.875610 -20.334661 71.848312 22 19 17
-35.875652 -20.334347 71.848404 27 21 20
-35.875648 -20.330473 71.848419 61 138 176
-35.875645 -20.334517 71.848419 34 37 38
-35.875587 -20.334545 71.848312 16 23 27
-35.875641 -20.335064 71.848412 255 253 255
-35.875641 -20.335064 71.848412 255 253 255
-35.875626 -20.329762 71.848404 81 154 193
-35.875633 -20.334536 71.848419 35 38 41
-35.875687 -20.335056 71.848526 45 38 37
-35.875626 -20.334312 71.848412 162 156 155
-35.875561 -20.330959 71.848297 16 14 14
-35.875561 -20.330959 71.848297 16 14 14
-35.875591 -20.334484 71.848373 254 255 255
-35.875694 -20.334312 71.848579 18 17 21
-35.875629 -20.335054 71.848465 157 144 141
-35.875633 -20.329510 71.848480 141 182 215
-35.875469 -20.332342 71.848175 161 198 231
-35.875488 -20.333511 71.848236 115 163 206
-35.875610 -20.334068 71.848488 156 204 240
-35.875504 -20.335377 71.848274 41 108 147
-35.875526 -20.334396 71.848328 219 213 212
-35.875282 -20.334349 71.847839 27 26 24
-35.875801 -20.334463 71.848877 38 37 39
-35.875450 -20.335335 71.848175 52 129 167
-35.875465 -20.335329 71.848213 2 83 123
-35.875553 -20.334055 71.848404 122 156 190
-35.875572 -20.334297 71.848473 137 175 210
-35.875534 -20.334377 71.848396 36 33 35
-35.875534 -20.334171 71.848427 177 211 245
-35.875652 -20.334438 71.848663 107 134 149
-35.875397 -20.330082 71.848160 17 16 14
-35.875538 -20.334337 71.848442 23 34 50
-35.875565 -20.334381 71.848511 82 122 146
-35.875519 -20.334373 71.848427 56 81 96
-35.875431 -20.335310 71.848251 0 45 86
-35.875481 -20.335258 71.848366 77 99 111
-35.875488 -20.334969 71.848396 14 13 11
-35.875408 -20.328594 71.848244 23 22 20
-35.875408 -20.328594 71.848244 23 22 20
-35.875462 -20.335308 71.848351 174 202 219
-35.875568 -20.334414 71.848564 191 192 193
-35.875496 -20.334391 71.848434 96 90 89
-35.875607 -20.335125 71.848663 132 125 126
-35.875465 -20.335365 71.848396 116 185 224
-35.875286 -20.333523 71.848045 54 110 156
-35.875435 -20.335318 71.848351 56 96 119
-35.875538 -20.334278 71.848564 180 214 248
-35.875477 -20.335258 71.848457 249 247 242
-35.875374 -20.335276 71.848259 48 68 86
-35.875347 -20.335012 71.848198 44 45 48
-35.875462 -20.334414 71.848450 85 82 84
-35.875427 -20.335182 71.848389 88 77 82
-35.875370 -20.329527 71.848282 53 138 182
-35.875381 -20.333920 71.848328 106 159 210
-35.875458 -20.334377 71.848480 62 128 165
-35.875343 -20.333624 71.848259 62 107 153
-35.875435 -20.335131 71.848450 193 185 188
-35.875294 -20.333664 71.848167 50 99 149
-35.875294 -20.333664 71.848167 50 99 149
-35.875423 -20.335295 71.848434 87 106 131
-35.875393 -20.334681 71.848373 123 125 124
-35.875393 -20.334681 71.848373 123 125 124
-35.875492 -20.334461 71.848579 12 12 12
-35.875309 -20.333931 71.848206 23 78 133
-35.875416 -20.335180 71.848419 138 128 138
-35.875385 -20.335060 71.848358 192 187 191
-35.875351 -20.334791 71.848297 197 196 200
-35.875347 -20.334700 71.848297 164 163 165
-35.875519 -20.334036 71.848633 97 150 205
-35.875465 -20.335312 71.848534 16 43 74
-35.875378 -20.335293 71.848366 2 45 82
-35.875439 -20.334925 71.848495 205 198 199
-35.875443 -20.334881 71.848511 94 86 89
-35.875443 -20.334881 71.848511 94 86 89
-35.875420 -20.335123 71.848465 46 37 42
-35.875427 -20.335108 71.848473 179 171 176
-35.875370 -20.334679 71.848366 5 7 6
-35.875416 -20.334011 71.848465 97 158 209
-35.875416 -20.334011 71.848465 97 158 209
-35.875385 -20.334745 71.848412 165 152 154
-35.875217 -20.333118 71.848083 71 157 198
-35.875404 -20.333948 71.848465 31 93 147
-35.875340 -20.334793 71.848335 203 195 198
-35.875381 -20.333973 71.848427 51 70 131
-35.875519 -20.334526 71.848717 67 61 60
-35.875397 -20.334021 71.848473 28 84 136
-35.875351 -20.334707 71.848373 225 217 218
-35.875458 -20.334581 71.848595 47 40 39
-35.875443 -20.334114 71.848572 123 173 213
-35.875263 -20.334938 71.848206 70 61 66
-35.875431 -20.334007 71.848557 48 72 132
-35.875431 -20.334007 71.848557 48 72 132
-35.875450 -20.333996 71.848595 99 153 205
-35.875340 -20.335052 71.848396 144 136 139
-35.875362 -20.335701 71.848480 143 191 227
-35.875362 -20.335701 71.848480 143 191 227
-35.875271 -20.333931 71.848305 111 156 208
-35.875343 -20.334097 71.848442 130 164 198
-35.875347 -20.334286 71.848457 90 116 147
-35.875191 -20.330030 71.848160 47 105 141
-35.875423 -20.335260 71.848610 9 9 9
-35.875313 -20.329956 71.848412 97 119 133
-35.875271 -20.333954 71.848320 10 65 114
-35.875404 -20.334099 71.848602 125 168 205
-35.875309 -20.333939 71.848404 19 80 131
-35.875309 -20.333939 71.848404 19 80 131
-35.875317 -20.334110 71.848427 105 133 168
-35.875389 -20.335789 71.848595 155 200 238
-35.875290 -20.332140 71.848412 204 228 247
-35.875362 -20.333927 71.848557 97 167 214
-35.875355 -20.334452 71.848549 17 23 31
-35.875381 -20.334309 71.848610 32 66 100
-35.875359 -20.335690 71.848564 83 157 200
-35.875324 -20.331635 71.848541 13 11 11
-35.875134 -20.329987 71.848175 40 74 98
-35.875252 -20.334478 71.848412 136 166 195
-35.875355 -20.334135 71.848633 7 24 55
-35.875320 -20.333918 71.848572 78 138 186
-35.875320 -20.333918 71.848572 78 138 186
-35.875271 -20.328836 71.848518 71 144 183
-35.875294 -20.333946 71.848572 55 102 150
-35.875351 -20.335213 71.848701 25 25 25
-35.875290 -20.335112 71.848595 102 95 96
-35.875259 -20.334671 71.848534 90 126 154
-35.875305 -20.333954 71.848633 0 20 65
-35.875305 -20.333954 71.848633 0 20 65
-35.875229 -20.333891 71.848495 41 92 137
-35.875210 -20.330137 71.848488 241 243 242
-35.875210 -20.330137 71.848488 241 243 242
-35.875240 -20.333879 71.848541 11 61 108
-35.875225 -20.334900 71.848518 42 36 32
-35.875198 -20.333862 71.848534 0 36 77
-35.875370 -20.334047 71.848915 0 18 46
-35.875370 -20.334047 71.848915 0 18 46
-35.875015 -20.330008 71.848244 172 167 162
-35.874847 -20.330397 71.847939 35 80 110
-35.874847 -20.330397 71.847939 35 80 110
-35.875328 -20.335142 71.848907 3 7 12
-35.875069 -20.328396 71.848404 137 187 223
-35.875175 -20.335091 71.848640 31 32 35
-35.875080 -20.330227 71.848473 136 188 221
-35.875080 -20.330227 71.848473 136 188 221
-35.875301 -20.335104 71.848907 33 35 34
-35.874908 -20.330320 71.848129 88 155 194
-35.875206 -20.335081 71.848839 255 255 255
-35.875038 -20.335033 71.848534 57 53 53
-35.875275 -20.331854 71.849030 33 74 107
-35.874939 -20.330069 71.848381 241 243 238
-35.874989 -20.333151 71.848526 0 55 96
-35.874989 -20.333151 71.848526 0 55 96
-35.874947 -20.333139 71.848473 0 54 95
-35.875069 -20.335066 71.848785 233 231 226
-35.874943 -20.333273 71.848541 15 75 116
-35.874977 -20.333223 71.848618 189 219 248
-35.874790 -20.328112 71.848251 186 214 239
-35.875042 -20.330399 71.848755 131 187 222
-35.875076 -20.335064 71.848824 120 125 135
-35.874916 -20.328615 71.848526 94 161 200
-35.875038 -20.335123 71.848785 30 25 29
-35.875023 -20.333319 71.848763 184 222 253
-35.874866 -20.329218 71.848457 74 150 196
-35.874863 -20.334316 71.848465 170 208 239
-35.874962 -20.333578 71.848694 5 63 109
-35.875088 -20.333464 71.848969 152 202 239
-35.874813 -20.336748 71.848419 51 38 35
-35.874592 -20.333399 71.848007 0 34 81
-35.874905 -20.333218 71.848648 97 141 175
-35.875008 -20.333979 71.848877 104 167 207
-35.875019 -20.330950 71.848907 67 149 191
-35.874908 -20.333895 71.848709 11 78 118
-35.874878 -20.333900 71.848656 94 157 197
-35.874603 -20.329636 71.848122 139 138 140
-35.874851 -20.333515 71.848610 14 60 111
-35.874989 -20.333313 71.848892 221 234 253
-35.875031 -20.333555 71.848976 11 73 122
-35.875019 -20.333435 71.848991 194 224 253
-35.874809 -20.334553 71.848564 52 88 146
-35.874851 -20.334774 71.848656 35 82 138
-35.874851 -20.334774 71.848656 35 82 138
-35.874779 -20.334566 71.848526 99 148 199
-35.875156 -20.335339 71.849274 41 38 36
-35.875107 -20.333652 71.849182 46 101 150
-35.875019 -20.333572 71.849007 19 70 121
-35.874710 -20.334681 71.848396 63 98 157
-35.874886 -20.334745 71.848763 46 83 145
-35.874794 -20.334503 71.848595 23 89 137
-35.874802 -20.334734 71.848618 108 152 206
-35.874859 -20.335846 71.848763 61 148 193
-35.874855 -20.334467 71.848778 36 92 138
-35.874886 -20.334856 71.848839 28 81 131
-35.874886 -20.334856 71.848839 28 81 131
-35.874676 -20.334724 71.848434 28 85 135
-35.874676 -20.334724 71.848434 28 85 135
-35.874893 -20.334820 71.848877 104 148 205
-35.874863 -20.333055 71.848839 92 166 209
-35.874851 -20.334846 71.848816 103 151 204
-35.874977 -20.334724 71.849083 67 131 180
-35.874977 -20.334724 71.849083 67 131 180
-35.874767 -20.334829 71.848679 41 71 116
-35.874756 -20.334438 71.848663 98 156 202
-35.874756 -20.334438 71.848663 98 156 202
-35.874718 -20.334547 71.848595 37 82 136
-35.874771 -20.334816 71.848709 36 85 136
-35.874771 -20.334816 71.848709 36 85 136
-35.874802 -20.334883 71.848778 189 211 241
-35.874908 -20.337336 71.848984 50 39 36
-35.874760 -20.334497 71.848701 98 172 215
-35.874802 -20.328896 71.848793 44 98 140
-35.874710 -20.334780 71.848610 50 90 143
-35.874821 -20.333057 71.848839 83 154 198
-35.874763 -20.334435 71.848747 38 88 135
-35.874798 -20.334911 71.848816 200 218 246
-35.874763 -20.334810 71.848747 51 87 142
-35.874763 -20.334810 71.848747 51 87 142
-35.874905 -20.334539 71.849037 93 156 201
-35.874744 -20.329418 71.848740 64 79 98
-35.874748 -20.334705 71.848740 118 176 222
-35.874729 -20.328802 71.848724 231 231 226
-35.874794 -20.333189 71.848846 141 191 231
-35.874763 -20.334816 71.848785 99 144 198
-35.874718 -20.334629 71.848701 47 87 140
-35.874771 -20.334881 71.848816 182 204 240
-35.874775 -20.334900 71.848831 74 92 120
-35.874775 -20.334900 71.848831 74 92 120
-35.874817 -20.333229 71.848915 0 47 82
-35.874729 -20.329660 71.848778 1 41 70
-35.874477 -20.327827 71.848274 142 182 217
-35.874527 -20.329401 71.848373 226 219 211
-35.874928 -20.335136 71.849182 136 182 216
-35.874733 -20.334665 71.848801 70 100 146
-35.874725 -20.334650 71.848801 161 194 239
-35.874687 -20.334442 71.848740 47 94 140
-35.874725 -20.334700 71.848816 53 86 130
-35.874527 -20.329283 71.848427 118 115 113
-35.874527 -20.329283 71.848427 118 115 113
-35.874702 -20.334703 71.848770 143 183 227
-35.874630 -20.334902 71.848633 148 169 195
-35.874767 -20.333275 71.848930 93 88 92
-35.874687 -20.330454 71.848778 178 212 242
-35.874687 -20.330454 71.848778 178 212 242
-35.874657 -20.334620 71.848717 136 177 220
-35.874657 -20.334675 71.848717 140 186 229
-35.874210 -20.337151 71.847832 48 42 41
-35.874699 -20.334282 71.848839 131 160 193
-35.874683 -20.334656 71.848808 60 84 125
-35.874771 -20.332958 71.848991 168 195 226
-35.874687 -20.334677 71.848816 154 183 223
-35.874687 -20.334677 71.848816 154 183 223
-35.874573 -20.332853 71.848595 127 156 187
-35.874660 -20.336679 71.848770 122 182 223
-35.874660 -20.336679 71.848770 122 182 223
-35.874680 -20.334703 71.848831 130 197 236
-35.874683 -20.328968 71.848854 149 145 145
-35.874683 -20.328968 71.848854 149 145 145
-35.874657 -20.334471 71.848801 131 170 219
-35.874668 -20.332256 71.848839 3 47 88
-35.874752 -20.334545 71.849007 62 96 144
-35.874668 -20.333267 71.848854 105 99 98
-35.874847 -20.333321 71.849220 119 149 178
-35.874649 -20.334694 71.848862 145 196 233
-35.874729 -20.334925 71.849022 189 205 240
-35.874744 -20.333239 71.849068 63 137 180
-35.874775 -20.333254 71.849129 60 134 177
-35.874641 -20.333252 71.848885 34 40 53
-35.874641 -20.333252 71.848885 34 40 53
-35.874592 -20.334675 71.848793 48 88 132
-35.874538 -20.336987 71.848686 51 40 37
-35.874645 -20.334732 71.848900 43 88 140
-35.874718 -20.333265 71.849075 58 104 138
-35.874577 -20.334875 71.848793 200 215 250
-35.874630 -20.334724 71.848900 95 140 192
-35.874630 -20.334724 71.848900 95 140 192
-35.874722 -20.333288 71.849106 110 144 176
-35.874645 -20.334723 71.848946 50 89 138
-35.874561 -20.334902 71.848778 212 228 253
-35.874641 -20.334705 71.848953 141 183 221
-35.874523 -20.334332 71.848717 176 201 238
-35.874592 -20.334909 71.848854 79 91 119
-35.874592 -20.334909 71.848854 79 91 119
-35.874752 -20.334702 71.849190 148 182 214
-35.874607 -20.331903 71.848907 73 117 165
-35.874676 -20.333326 71.849045 139 138 142
-35.874645 -20.334623 71.848984 191 223 253
-35.874683 -20.333239 71.849075 0 56 96
-35.874683 -20.333239 71.849075 0 56 96
-35.874619 -20.334948 71.848938 204 220 245
-35.874634 -20.334345 71.848976 54 82 117
-35.874592 -20.334343 71.848900 188 217 250
-35.874569 -20.334812 71.848862 25 85 133
-35.874611 -20.334467 71.848946 164 190 230
-35.874535 -20.334501 71.848793 161 191 227
-35.874577 -20.335009 71.848877 198 219 246
-35.874603 -20.334505 71.848938 95 124 163
-35.874809 -20.333208 71.849358 8 41 69
-35.874580 -20.334484 71.848915 173 202 241
-35.874573 -20.334393 71.848907 66 86 122
-35.874573 -20.334393 71.848907 66 86 122
-35.874626 -20.334600 71.849030 197 220 252
-35.874680 -20.335152 71.849144 107 157 193
-35.874714 -20.333258 71.849213 65 124 162
-35.874516 -20.334934 71.848816 217 231 255
-35.874611 -20.334354 71.849007 178 197 235
-35.874607 -20.334440 71.848999 196 219 251
-35.874573 -20.335035 71.848938 181 202 229
-35.874535 -20.334356 71.848854 189 213 243
-35.874535 -20.334356 71.848854 189 213 243
-35.874565 -20.334520 71.848923 162 185 225
-35.874554 -20.334452 71.848900 158 192 224
-35.874409 -20.329569 71.848633 137 188 224
-35.874573 -20.334871 71.848961 182 205 237
-35.874584 -20.334623 71.848976 191 210 244
-35.874550 -20.334999 71.848915 197 217 247
-35.874599 -20.334572 71.849022 176 193 231
-35.874599 -20.334572 71.849022 176 193 231
-35.874809 -20.333519 71.849449 7 26 48
-35.874569 -20.334534 71.848969 57 78 116
-35.874622 -20.333302 71.849083 121 132 146
-35.874691 -20.335154 71.849220 180 213 247
-35.874546 -20.334835 71.848930 151 184 228
-35.874603 -20.332769 71.849052 155 203 240
-35.874554 -20.334650 71.848961 179 203 240
-35.874573 -20.334869 71.848999 54 74 110
-35.874573 -20.334869 71.848999 54 74 110
-35.874638 -20.333946 71.849136 133 185 226
-35.874496 -20.334908 71.848854 57 76 108
-35.874496 -20.334908 71.848854 57 76 108
-35.874580 -20.335070 71.849022 164 190 221
-35.874554 -20.334564 71.848969 169 191 221
-35.874725 -20.334673 71.849327 168 190 220
-35.874676 -20.333315 71.849228 73 89 106
-35.874592 -20.334902 71.849060 191 212 244
-35.874519 -20.334518 71.848915 172 192 228
-35.874512 -20.334957 71.848900 196 212 245
-35.874577 -20.334299 71.849037 63 86 126
-35.874577 -20.334299 71.849037 63 86 126
-35.874584 -20.334696 71.849045 146 193 233
-35.874496 -20.329859 71.848885 121 178 217
-35.874577 -20.334276 71.849045 65 89 126
-35.874542 -20.334362 71.848969 182 207 242
-35.874588 -20.334993 71.849060 182 209 238
-35.874615 -20.332859 71.849121 62 147 191
-35.874508 -20.334753 71.848915 36 92 144
-35.874508 -20.334753 71.848915 36 92 144
-35.874504 -20.334976 71.848900 52 74 104
-35.874504 -20.334976 71.848900 52 74 104
-35.874531 -20.334267 71.848969 162 186 226
-35.874653 -20.333637 71.849213 74 139 178
-35.874546 -20.334368 71.849007 162 189 220
-35.874645 -20.333258 71.849213 83 92 106
-35.874516 -20.334515 71.848953 177 197 233
-35.874527 -20.334417 71.848984 185 206 238
-35.874523 -20.334560 71.848984 66 85 117
-35.874584 -20.333614 71.849106 173 228 255
-35.874584 -20.333614 71.849106 173 228 255
-35.874638 -20.333220 71.849213 86 92 100
-35.874542 -20.334400 71.849022 173 194 228
-35.874668 -20.333284 71.849289 15 30 49
-35.874641 -20.333599 71.849243 161 211 248
-35.874439 -20.334629 71.848831 120 161 205
-35.874512 -20.334997 71.848984 52 69 97
-35.874630 -20.333538 71.849228 77 142 181
-35.874428 -20.334427 71.848816 172 197 234
-35.874527 -20.334631 71.849022 182 206 236
-35.874588 -20.333540 71.849159 181 226 255
-35.874588 -20.333540 71.849159 181 226 255
-35.874519 -20.334372 71.849022 63 84 118
-35.874519 -20.334372 71.849022 63 84 118
-35.874657 -20.333265 71.849297 84 94 106
-35.874779 -20.333319 71.849548 76 82 89
-35.874470 -20.334991 71.848930 197 218 245
-35.874496 -20.334419 71.848984 192 219 248
-35.874516 -20.334391 71.849030 193 211 247
-35.874516 -20.334391 71.849030 193 211 247
-35.874451 -20.334921 71.848900 161 184 218
-35.874645 -20.333544 71.849297 162 215 254
-35.874420 -20.334297 71.848839 188 211 245
-35.874519 -20.334566 71.849045 170 191 218
-35.874519 -20.334566 71.849045 170 191 218
-35.874500 -20.327940 71.849030 43 40 38
-35.874367 -20.334986 71.848747 141 179 210
-35.874447 -20.334461 71.848907 169 197 232
-35.874538 -20.334442 71.849098 91 114 148
-35.874496 -20.334585 71.849014 179 201 231
-35.874477 -20.334885 71.848976 50 67 98
-35.874439 -20.327600 71.848915 14 16 15
-35.874519 -20.334621 71.849060 192 216 246
-35.874535 -20.335026 71.849098 169 196 225
-35.874443 -20.334894 71.848915 179 213 245
-35.874588 -20.333447 71.849205 48 77 102
-35.874512 -20.331871 71.849060 97 137 181
-35.874485 -20.334873 71.849007 183 202 236
-35.874439 -20.334953 71.848923 175 202 233
-35.874504 -20.334576 71.849052 199 215 248
-35.874500 -20.334602 71.849045 61 82 114
-35.874470 -20.334923 71.848999 123 156 190
-35.874516 -20.333630 71.849098 49 119 161
-35.874447 -20.334869 71.848961 53 72 104
-35.874702 -20.333498 71.849480 73 84 98
-35.874474 -20.334387 71.849022 176 204 230
-35.874363 -20.335068 71.848808 19 80 118
-35.874481 -20.334394 71.849052 182 207 234
-35.874599 -20.333508 71.849281 245 255 255
-35.874485 -20.334858 71.849052 176 205 238
-35.874481 -20.334963 71.849060 141 179 214
-35.874554 -20.334389 71.849205 180 203 237
-35.874554 -20.334389 71.849205 180 203 237
-35.874619 -20.333548 71.849342 0 36 63
-35.874466 -20.334898 71.849045 160 189 222
-35.874447 -20.334425 71.849007 187 208 242
-35.874645 -20.333048 71.849411 55 138 183
-35.874523 -20.334581 71.849167 52 72 108
-35.874607 -20.333450 71.849335 207 206 210
-35.874599 -20.333467 71.849327 128 125 127
-35.874405 -20.334801 71.848946 154 193 232
-35.874470 -20.334881 71.849068 163 191 226
-35.874531 -20.335091 71.849197 169 204 236
-35.874508 -20.334602 71.849159 184 200 231
-35.874485 -20.334551 71.849121 172 192 233
-35.874466 -20.334635 71.849083 192 218 249
-35.874470 -20.334621 71.849098 84 103 137
-35.874470 -20.334406 71.849098 64 79 116
-35.874527 -20.333981 71.849213 196 224 250
-35.874470 -20.334381 71.849106 172 188 230
-35.874454 -20.334856 71.849068 169 194 229
-35.874432 -20.334826 71.849030 53 79 119
-35.874386 -20.334471 71.848930 158 184 224
-35.874454 -20.335075 71.849075 52 87 117
-35.874489 -20.334446 71.849152 176 199 233
-35.874538 -20.333363 71.849266 71 111 142
-35.874447 -20.331852 71.849083 154 188 222
-35.874466 -20.334633 71.849121 177 204 237
-35.874454 -20.334641 71.849098 158 190 222
-35.874405 -20.334349 71.848999 88 106 147
-35.874405 -20.334349 71.848999 88 106 147
-35.874474 -20.334568 71.849144 176 195 233
-35.874474 -20.334568 71.849144 176 195 233
-35.874416 -20.334929 71.849030 50 75 110
-35.874416 -20.334929 71.849030 50 75 110
-35.874634 -20.333359 71.849480 16 22 29
-35.874470 -20.333977 71.849144 152 186 211
-35.874546 -20.333410 71.849304 69 72 87
-35.874531 -20.333426 71.849266 165 162 166
-35.874401 -20.334623 71.849007 169 201 240
-35.874500 -20.333979 71.849213 212 233 255
-35.874302 -20.334995 71.848816 172 206 240
-35.874439 -20.334463 71.849098 161 195 227
-35.874363 -20.334501 71.848946 76 99 139
-35.874367 -20.334503 71.848953 76 99 139
-35.874516 -20.333445 71.849258 42 59 74
-35.874424 -20.334654 71.849083 52 87 131
-35.874420 -20.334955 71.849068 105 128 162
-35.874519 -20.333250 71.849289 251 253 252
-35.874519 -20.333250 71.849289 251 253 252
-35.874546 -20.333391 71.849342 29 69 100
-35.874256 -20.334589 71.848763 85 151 199
-35.874405 -20.334810 71.849068 169 208 241
-35.874474 -20.335064 71.849205 174 209 241
-35.874397 -20.334602 71.849052 172 195 236
-35.874340 -20.334909 71.848938 53 76 110
-35.874439 -20.333097 71.849152 26 25 29
-35.874439 -20.333097 71.849152 26 25 29
-35.874359 -20.334534 71.848984 183 208 243
-35.874367 -20.331680 71.849007 121 144 184
-35.874413 -20.334633 71.849106 61 79 126
-35.874531 -20.333229 71.849342 20 22 27
-35.874420 -20.332457 71.849129 126 139 158
