ply
format ascii 1.0
element vertex 1196
property float x
property float y
property float z
property uchar red
property uchar green
property uchar blue
end_header
-0.699265 -0.395219 1.399049 153 168 195
-0.699260 -0.395236 1.399040 69 81 123
-0.699262 -0.395229 1.399045 127 117 128
-0.699265 -0.395222 1.399050 159 167 191
-0.699261 -0.395234 1.399043 111 121 150
-0.699270 -0.395204 1.399061 118 121 129
-0.699259 -0.395241 1.399040 232 245 255
-0.699259 -0.395242 1.399040 54 63 95
-0.699259 -0.395243 1.399039 113 120 154
-0.699259 -0.395243 1.399039 37 44 78
-0.699259 -0.395241 1.399041 103 113 142
-0.699268 -0.395214 1.399057 170 185 204
-0.699263 -0.395230 1.399049 136 153 181
-0.699260 -0.395241 1.399042 139 148 176
-0.699259 -0.395244 1.399041 50 56 94
-0.699259 -0.395244 1.399042 45 56 95
-0.699270 -0.395205 1.399064 35 35 46
-0.699261 -0.395237 1.399047 151 161 190
-0.699259 -0.395246 1.399041 66 70 105
-0.699259 -0.395244 1.399043 66 81 114
-0.699259 -0.395245 1.399043 38 51 90
-0.699269 -0.395211 1.399063 110 123 149
-0.699260 -0.395244 1.399046 76 87 119
-0.699259 -0.395245 1.399045 117 126 158
-0.699260 -0.395245 1.399047 86 96 125
-0.699259 -0.395247 1.399045 110 126 161
-0.699269 -0.395212 1.399066 54 61 95
-0.699269 -0.395212 1.399066 54 61 95
-0.699260 -0.395245 1.399047 246 250 255
-0.699263 -0.395233 1.399054 111 124 150
-0.699259 -0.395248 1.399047 79 91 120
-0.699260 -0.395245 1.399049 92 91 119
-0.699259 -0.395248 1.399047 241 247 255
-0.699260 -0.395245 1.399049 130 134 163
-0.699260 -0.395245 1.399049 130 134 163
-0.699259 -0.395249 1.399047 79 96 123
-0.699259 -0.395250 1.399047 56 64 98
-0.699260 -0.395248 1.399049 89 85 109
-0.699260 -0.395247 1.399049 69 79 105
-0.699259 -0.395249 1.399049 254 251 255
-0.699259 -0.395249 1.399049 254 251 255
-0.699261 -0.395244 1.399053 240 247 255
-0.699265 -0.395231 1.399061 64 76 118
-0.699269 -0.395218 1.399069 134 140 153
-0.699261 -0.395243 1.399054 127 138 170
-0.699261 -0.395245 1.399054 78 80 115
-0.699261 -0.395244 1.399054 89 97 115
-0.699260 -0.395248 1.399052 248 247 255
-0.699259 -0.395251 1.399051 231 239 255
-0.699262 -0.395243 1.399055 106 114 138
-0.699259 -0.395252 1.399050 38 46 78
-0.699263 -0.395238 1.399059 161 159 183
-0.699261 -0.395244 1.399055 244 249 255
-0.699260 -0.395250 1.399053 76 80 117
-0.699266 -0.395229 1.399065 236 253 255
-0.699261 -0.395246 1.399056 69 77 113
-0.699261 -0.395247 1.399055 63 76 115
-0.699262 -0.395245 1.399057 100 98 104
-0.699262 -0.395244 1.399058 53 55 90
-0.699262 -0.395245 1.399057 247 245 245
-0.699260 -0.395250 1.399055 95 105 134
-0.699260 -0.395250 1.399055 239 248 255
-0.699260 -0.395250 1.399055 243 250 255
-0.699265 -0.395233 1.399065 186 196 222
-0.699264 -0.395238 1.399063 126 144 169
-0.699266 -0.395233 1.399067 74 88 127
-0.699262 -0.395246 1.399059 128 117 128
-0.699262 -0.395246 1.399059 128 117 128
-0.699267 -0.395230 1.399069 135 136 139
-0.699261 -0.395250 1.399058 245 242 244
-0.699261 -0.395250 1.399058 245 242 244
-0.699264 -0.395240 1.399064 163 179 204
-0.699261 -0.395251 1.399058 250 250 255
-0.699264 -0.395239 1.399064 144 162 187
-0.699266 -0.395234 1.399068 214 222 234
-0.699261 -0.395248 1.399059 57 74 112
-0.699266 -0.395233 1.399069 188 206 234
-0.699261 -0.395252 1.399058 75 79 109
-0.699261 -0.395252 1.399058 75 79 109
-0.699260 -0.395253 1.399058 235 242 255
-0.699261 -0.395253 1.399058 93 93 118
-0.699267 -0.395232 1.399071 137 138 139
-0.699266 -0.395235 1.399069 181 186 206
-0.699262 -0.395247 1.399062 110 110 128
-0.699263 -0.395245 1.399064 59 72 114
-0.699266 -0.395235 1.399070 111 108 122
-0.699266 -0.395237 1.399069 68 81 114
-0.699262 -0.395249 1.399062 233 242 255
-0.699262 -0.395249 1.399062 233 242 255
-0.699266 -0.395234 1.399071 243 252 255
-0.699266 -0.395234 1.399071 243 252 255
-0.699264 -0.395242 1.399067 205 221 252
-0.699269 -0.395226 1.399076 134 141 145
-0.699262 -0.395248 1.399064 249 247 247
-0.699262 -0.395249 1.399064 91 89 107
-0.699266 -0.395236 1.399072 199 202 223
-0.699264 -0.395242 1.399068 145 170 196
-0.699262 -0.395249 1.399064 74 75 119
-0.699262 -0.395249 1.399064 74 75 119
-0.699270 -0.395223 1.399079 139 148 152
-0.699263 -0.395249 1.399066 254 247 248
-0.699266 -0.395237 1.399073 190 201 224
-0.699271 -0.395220 1.399083 35 40 43
-0.699266 -0.395237 1.399073 93 102 134
-0.699270 -0.395225 1.399081 151 158 162
-0.699269 -0.395229 1.399079 154 162 169
-0.699265 -0.395241 1.399072 255 254 255
-0.699264 -0.395244 1.399070 75 69 91
-0.699264 -0.395244 1.399070 75 69 91
-0.699287 -0.395162 1.399117 114 119 120
-0.699264 -0.395244 1.399070 74 68 90
-0.699264 -0.395244 1.399070 74 68 90
-0.699263 -0.395250 1.399068 245 245 250
-0.699265 -0.395242 1.399073 157 157 162
-0.699263 -0.395251 1.399068 247 242 244
-0.699263 -0.395249 1.399069 81 85 122
-0.699263 -0.395248 1.399070 254 253 255
-0.699263 -0.395250 1.399069 71 71 96
-0.699265 -0.395244 1.399072 253 245 248
-0.699270 -0.395227 1.399082 71 80 84
-0.699261 -0.395257 1.399065 78 84 97
-0.699265 -0.395242 1.399074 148 147 161
-0.699270 -0.395227 1.399083 70 82 83
-0.699270 -0.395227 1.399083 70 82 83
-0.699265 -0.395241 1.399074 135 139 158
-0.699265 -0.395241 1.399074 135 139 158
-0.699261 -0.395256 1.399066 219 225 238
-0.699266 -0.395239 1.399076 217 224 244
-0.699265 -0.395244 1.399073 73 72 106
-0.699262 -0.395253 1.399068 238 241 244
-0.699263 -0.395250 1.399070 76 66 83
-0.699266 -0.395241 1.399075 159 161 186
-0.699265 -0.395245 1.399073 246 239 240
-0.699263 -0.395252 1.399070 244 239 241
-0.699265 -0.395244 1.399075 231 234 251
-0.699270 -0.395227 1.399085 16 23 27
-0.699268 -0.395234 1.399081 245 253 255
-0.699264 -0.395247 1.399074 52 65 104
-0.699262 -0.395256 1.399069 63 81 117
-0.699262 -0.395256 1.399069 63 81 117
-0.699264 -0.395250 1.399072 62 72 108
-0.699262 -0.395256 1.399069 70 83 122
-0.699267 -0.395241 1.399079 70 84 121
-0.699264 -0.395250 1.399073 221 229 255
-0.699264 -0.395250 1.399073 221 229 255
-0.699266 -0.395243 1.399078 240 239 241
-0.699269 -0.395234 1.399084 99 116 124
-0.699266 -0.395244 1.399077 246 238 243
-0.699265 -0.395248 1.399076 242 245 248
-0.699264 -0.395251 1.399074 65 69 98
-0.699264 -0.395251 1.399075 69 71 106
-0.699264 -0.395250 1.399075 84 94 130
-0.699264 -0.395249 1.399076 248 249 250
-0.699265 -0.395246 1.399078 48 63 100
-0.699266 -0.395244 1.399079 73 70 96
-0.699270 -0.395229 1.399088 42 75 89
-0.699271 -0.395229 1.399090 154 199 213
-0.699271 -0.395229 1.399090 154 199 213
-0.699263 -0.395257 1.399074 90 95 128
-0.699263 -0.395256 1.399074 67 77 106
-0.699271 -0.395228 1.399091 45 68 80
-0.699270 -0.395231 1.399090 127 161 173
-0.699263 -0.395256 1.399075 227 232 242
-0.699263 -0.395256 1.399075 227 232 242
-0.699265 -0.395249 1.399079 93 90 110
-0.699265 -0.395249 1.399079 93 90 110
-0.699265 -0.395249 1.399079 245 243 249
-0.699265 -0.395251 1.399078 110 113 136
-0.699267 -0.395242 1.399084 173 186 219
-0.699270 -0.395233 1.399089 148 165 170
-0.699263 -0.395258 1.399075 118 117 119
-0.699266 -0.395247 1.399082 40 58 94
-0.699266 -0.395247 1.399082 40 58 94
-0.699263 -0.395257 1.399077 95 93 123
-0.699265 -0.395249 1.399082 124 134 152
-0.699270 -0.395233 1.399092 36 39 42
-0.699266 -0.395247 1.399084 33 49 84
-0.699268 -0.395243 1.399087 97 111 142
-0.699272 -0.395226 1.399096 137 139 144
-0.699263 -0.395258 1.399079 153 159 177
-0.699266 -0.395250 1.399084 243 246 249
-0.699270 -0.395235 1.399094 196 213 221
-0.699270 -0.395235 1.399094 196 213 221
-0.699264 -0.395259 1.399081 223 221 227
-0.699264 -0.395259 1.399081 223 221 227
-0.699264 -0.395257 1.399083 120 133 166
-0.699269 -0.395242 1.399092 101 105 110
-0.699267 -0.395249 1.399088 106 101 121
-0.699267 -0.395249 1.399088 106 101 121
-0.699266 -0.395251 1.399087 167 168 171
-0.699270 -0.395237 1.399097 140 146 153
-0.699271 -0.395236 1.399098 37 40 49
-0.699267 -0.395250 1.399090 251 252 255
-0.699267 -0.395249 1.399090 80 84 113
-0.699267 -0.395249 1.399090 80 84 113
-0.699265 -0.395257 1.399086 238 250 255
-0.699266 -0.395252 1.399089 254 252 255
-0.699266 -0.395253 1.399090 64 74 108
-0.699265 -0.395257 1.399087 243 252 255
-0.699267 -0.395251 1.399092 122 118 124
-0.699271 -0.395238 1.399100 131 143 150
-0.699272 -0.395236 1.399102 129 138 147
-0.699267 -0.395253 1.399092 51 60 88
-0.699267 -0.395253 1.399092 55 71 102
-0.699265 -0.395259 1.399089 87 89 119
-0.699267 -0.395251 1.399094 91 87 103
-0.699267 -0.395253 1.399093 218 232 247
-0.699268 -0.395250 1.399095 243 244 245
-0.699269 -0.395247 1.399098 82 92 126
-0.699267 -0.395253 1.399094 232 243 255
-0.699266 -0.395258 1.399092 133 138 158
-0.699266 -0.395257 1.399092 138 143 160
-0.699265 -0.395259 1.399092 200 205 232
-0.699269 -0.395248 1.399098 79 91 128
-0.699269 -0.395248 1.399098 79 91 128
-0.699268 -0.395250 1.399097 140 141 150
-0.699265 -0.395259 1.399092 48 55 82
-0.699266 -0.395258 1.399093 86 92 116
-0.699276 -0.395224 1.399113 89 98 130
-0.699266 -0.395257 1.399094 149 160 183
-0.699267 -0.395254 1.399096 128 127 141
-0.699267 -0.395253 1.399097 249 248 255
-0.699266 -0.395258 1.399095 241 252 255
-0.699267 -0.395255 1.399097 236 246 255
-0.699267 -0.395255 1.399098 230 239 255
-0.699268 -0.395254 1.399098 100 104 123
-0.699268 -0.395254 1.399098 100 104 123
-0.699269 -0.395248 1.399102 98 108 134
-0.699267 -0.395257 1.399097 238 253 255
-0.699269 -0.395251 1.399101 254 255 255
-0.699267 -0.395258 1.399097 252 255 255
-0.699267 -0.395258 1.399097 252 255 255
-0.699268 -0.395252 1.399100 98 103 113
-0.699266 -0.395259 1.399097 232 231 245
-0.699290 -0.395176 1.399144 75 78 79
-0.699268 -0.395253 1.399101 140 146 153
-0.699269 -0.395252 1.399102 133 128 132
-0.699267 -0.395256 1.399100 255 255 255
-0.699267 -0.395256 1.399100 255 255 255
-0.699269 -0.395252 1.399103 99 96 106
-0.699267 -0.395259 1.399099 197 198 206
-0.699267 -0.395258 1.399100 253 252 254
-0.699269 -0.395252 1.399103 222 225 234
-0.699268 -0.395254 1.399103 246 255 255
-0.699267 -0.395259 1.399100 226 225 229
-0.699267 -0.395259 1.399100 226 225 229
-0.699271 -0.395247 1.399108 60 65 66
-0.699267 -0.395260 1.399100 68 72 77
-0.699267 -0.395259 1.399100 69 64 79
-0.699278 -0.395223 1.399122 135 144 172
-0.699278 -0.395223 1.399122 135 144 172
-0.699269 -0.395252 1.399105 130 142 165
-0.699276 -0.395227 1.399120 30 35 38
-0.699267 -0.395259 1.399102 67 68 96
-0.699268 -0.395255 1.399104 251 248 250
-0.699276 -0.395229 1.399120 181 198 206
-0.699270 -0.395250 1.399108 63 73 99
-0.699269 -0.395253 1.399105 252 250 255
-0.699268 -0.395256 1.399104 157 153 159
-0.699268 -0.395256 1.399104 120 115 130
-0.699268 -0.395257 1.399104 131 129 140
-0.699269 -0.395254 1.399106 164 162 168
-0.699268 -0.395256 1.399105 162 157 172
-0.699268 -0.395256 1.399106 123 120 140
-0.699268 -0.395259 1.399104 224 216 219
-0.699268 -0.395259 1.399104 224 216 219
-0.699268 -0.395258 1.399105 241 231 232
-0.699279 -0.395221 1.399127 146 159 185
-0.699269 -0.395256 1.399107 159 164 186
-0.699268 -0.395260 1.399105 54 57 72
-0.699269 -0.395257 1.399107 95 103 121
-0.699269 -0.395257 1.399108 232 229 233
-0.699268 -0.395259 1.399107 75 76 104
-0.699277 -0.395228 1.399126 144 156 163
-0.699269 -0.395257 1.399110 74 72 96
-0.699271 -0.395250 1.399115 176 190 197
-0.699273 -0.395244 1.399120 30 33 34
-0.699270 -0.395257 1.399114 60 73 112
-0.699270 -0.395259 1.399114 43 53 81
-0.699279 -0.395226 1.399134 231 242 255
-0.699276 -0.395238 1.399130 157 165 167
-0.699272 -0.395253 1.399123 147 157 159
-0.699271 -0.395258 1.399120 37 51 90
-0.699279 -0.395230 1.399137 96 104 138
-0.699271 -0.395259 1.399121 115 123 131
-0.699271 -0.395258 1.399122 193 203 221
-0.699275 -0.395244 1.399131 148 159 162
-0.699272 -0.395257 1.399124 84 95 127
-0.699271 -0.395259 1.399123 101 111 113
-0.699276 -0.395241 1.399134 146 155 159
-0.699279 -0.395234 1.399138 169 176 186
-0.699293 -0.395183 1.399167 80 82 81
-0.699271 -0.395260 1.399124 113 120 124
-0.699272 -0.395257 1.399127 231 242 255
-0.699275 -0.395249 1.399133 28 33 36
-0.699272 -0.395260 1.399126 252 255 255
-0.699274 -0.395250 1.399132 136 141 144
-0.699272 -0.395260 1.399128 197 200 203
-0.699280 -0.395233 1.399145 106 114 146
-0.699272 -0.395261 1.399129 167 167 167
-0.699272 -0.395260 1.399129 74 75 76
-0.699279 -0.395237 1.399144 29 32 33
-0.699274 -0.395253 1.399135 91 103 110
-0.699274 -0.395255 1.399135 246 255 255
-0.699277 -0.395248 1.399141 52 63 66
-0.699277 -0.395248 1.399141 52 63 66
-0.699279 -0.395239 1.399146 189 201 213
-0.699280 -0.395237 1.399147 42 49 53
-0.699280 -0.395237 1.399147 42 49 53
-0.699275 -0.395254 1.399140 169 191 203
-0.699277 -0.395249 1.399142 103 123 128
-0.699275 -0.395257 1.399140 75 78 95
-0.699275 -0.395257 1.399140 75 78 95
-0.699274 -0.395260 1.399141 251 246 248
-0.699275 -0.395258 1.399144 74 84 113
-0.699276 -0.395254 1.399146 144 152 159
-0.699276 -0.395257 1.399146 148 158 160
-0.699275 -0.395259 1.399145 112 112 142
-0.699278 -0.395250 1.399150 142 149 153
-0.699276 -0.395258 1.399146 65 77 106
-0.699295 -0.395189 1.399185 90 94 93
-0.699281 -0.395239 1.399158 104 116 145
-0.699266 -0.395294 1.399127 38 40 39
-0.699275 -0.395261 1.399147 106 103 129
-0.699283 -0.395233 1.399163 26 28 39
-0.699265 -0.395295 1.399128 222 227 230
-0.699276 -0.395260 1.399149 98 111 144
-0.699282 -0.395238 1.399162 244 254 255
-0.699281 -0.395241 1.399161 228 237 246
-0.699281 -0.395242 1.399161 175 171 183
-0.699269 -0.395285 1.399136 42 43 44
-0.699281 -0.395245 1.399161 135 148 157
-0.699265 -0.395299 1.399129 60 69 91
-0.699264 -0.395305 1.399126 228 231 234
-0.699265 -0.395301 1.399129 182 193 225
-0.699266 -0.395295 1.399132 117 118 119
-0.699264 -0.395302 1.399128 83 90 117
-0.699265 -0.395300 1.399130 187 196 225
-0.699264 -0.395303 1.399128 232 233 236
-0.699285 -0.395229 1.399171 87 99 122
-0.699279 -0.395251 1.399159 188 199 202
-0.699276 -0.395263 1.399152 125 129 158
-0.699276 -0.395262 1.399153 89 97 133
-0.699282 -0.395242 1.399164 156 155 169
-0.699282 -0.395242 1.399164 156 155 169
-0.699284 -0.395234 1.399169 64 66 71
-0.699265 -0.395302 1.399130 167 173 203
-0.699271 -0.395280 1.399143 54 59 62
-0.699298 -0.395186 1.399196 128 139 142
-0.699298 -0.395186 1.399196 128 139 142
-0.699285 -0.395231 1.399172 179 182 185
-0.699285 -0.395231 1.399172 179 182 185
-0.699282 -0.395243 1.399165 223 226 234
-0.699265 -0.395301 1.399132 154 164 192
-0.699264 -0.395306 1.399130 119 119 135
-0.699264 -0.395305 1.399130 106 97 102
-0.699282 -0.395241 1.399167 242 251 255
-0.699268 -0.395292 1.399137 177 178 179
-0.699283 -0.395240 1.399168 96 99 122
-0.699285 -0.395234 1.399172 32 35 50
-0.699281 -0.395247 1.399166 236 244 251
-0.699264 -0.395305 1.399132 88 88 119
-0.699264 -0.395305 1.399132 88 88 119
-0.699282 -0.395245 1.399167 123 130 157
-0.699284 -0.395239 1.399171 46 56 85
-0.699269 -0.395290 1.399142 197 201 206
-0.699277 -0.395261 1.399159 249 249 249
-0.699286 -0.395232 1.399176 38 43 76
-0.699283 -0.395241 1.399171 214 215 223
-0.699280 -0.395253 1.399165 151 161 167
-0.699269 -0.395291 1.399143 233 236 244
-0.699269 -0.395291 1.399143 235 238 246
-0.699264 -0.395308 1.399134 239 236 238
-0.699285 -0.395236 1.399175 138 141 144
-0.699270 -0.395286 1.399146 173 174 175
-0.699286 -0.395234 1.399177 176 186 188
-0.699266 -0.395303 1.399138 122 128 158
-0.699265 -0.395306 1.399136 245 240 244
-0.699286 -0.395232 1.399180 190 194 199
-0.699271 -0.395287 1.399148 74 72 83
-0.699298 -0.395192 1.399203 100 105 108
-0.699281 -0.395251 1.399170 106 114 138
-0.699284 -0.395242 1.399175 62 64 83
-0.699293 -0.395210 1.399193 121 124 125
-0.699293 -0.395210 1.399193 121 124 125
-0.699286 -0.395234 1.399180 90 95 112
-0.699281 -0.395252 1.399170 244 245 246
-0.699294 -0.395206 1.399196 114 116 115
-0.699294 -0.395206 1.399196 114 116 115
-0.699285 -0.395238 1.399178 104 107 110
-0.699280 -0.395256 1.399169 239 249 251
-0.699290 -0.395220 1.399189 28 32 51
-0.699281 -0.395254 1.399170 95 107 136
-0.699281 -0.395254 1.399170 95 107 136
-0.699283 -0.395245 1.399176 82 82 117
-0.699283 -0.395245 1.399176 82 82 117
-0.699287 -0.395232 1.399183 59 56 65
-0.699279 -0.395261 1.399167 245 248 251
-0.699294 -0.395209 1.399197 21 26 43
-0.699295 -0.395202 1.399200 123 124 127
-0.699295 -0.395202 1.399200 123 124 127
-0.699270 -0.395293 1.399149 250 253 255
-0.699292 -0.395215 1.399194 21 28 42
-0.699266 -0.395305 1.399142 124 130 160
-0.699287 -0.395234 1.399183 199 200 201
-0.699292 -0.395215 1.399195 22 31 45
-0.699288 -0.395231 1.399186 38 39 53
-0.699279 -0.395262 1.399168 163 158 167
-0.699279 -0.395262 1.399168 163 158 167
-0.699286 -0.395237 1.399182 51 51 67
-0.699265 -0.395309 1.399141 94 98 122
-0.699295 -0.395205 1.399200 21 27 40
-0.699293 -0.395211 1.399198 25 26 40
-0.699291 -0.395220 1.399192 137 139 138
-0.699267 -0.395305 1.399145 115 124 152
-0.699283 -0.395247 1.399178 78 86 120
-0.699287 -0.395233 1.399186 160 161 162
-0.699287 -0.395233 1.399186 160 161 162
-0.699287 -0.395236 1.399184 65 65 83
-0.699290 -0.395223 1.399191 33 34 48
-0.699297 -0.395198 1.399206 81 82 83
-0.699297 -0.395200 1.399205 27 33 41
-0.699292 -0.395216 1.399196 116 121 124
-0.699291 -0.395222 1.399194 54 53 57
-0.699291 -0.395222 1.399194 54 53 57
-0.699291 -0.395222 1.399193 41 40 44
-0.699291 -0.395222 1.399193 41 40 44
-0.699293 -0.395215 1.399198 132 135 138
-0.699293 -0.395213 1.399199 116 120 125
-0.699296 -0.395203 1.399205 27 29 40
-0.699297 -0.395199 1.399207 90 93 94
-0.699280 -0.395260 1.399174 248 249 250
-0.699278 -0.395267 1.399170 53 60 82
-0.699294 -0.395210 1.399202 117 117 117
-0.699294 -0.395210 1.399202 117 117 117
-0.699293 -0.395216 1.399199 33 32 40
-0.699291 -0.395224 1.399194 147 146 150
-0.699291 -0.395224 1.399194 147 146 150
-0.699295 -0.395208 1.399203 122 124 129
-0.699295 -0.395208 1.399203 122 124 129
-0.699278 -0.395267 1.399170 163 174 197
-0.699297 -0.395201 1.399208 22 27 28
-0.699280 -0.395261 1.399174 181 179 185
-0.699267 -0.395306 1.399148 106 115 144
-0.699295 -0.395207 1.399204 112 116 121
-0.699266 -0.395311 1.399145 121 123 134
-0.699283 -0.395252 1.399180 117 120 141
-0.699296 -0.395203 1.399207 128 133 136
-0.699296 -0.395203 1.399207 128 133 136
-0.699292 -0.395220 1.399198 132 131 133
-0.699287 -0.395239 1.399187 38 48 77
-0.699297 -0.395202 1.399208 111 113 124
-0.699294 -0.395211 1.399203 30 31 34
-0.699294 -0.395211 1.399203 30 31 34
-0.699295 -0.395210 1.399204 26 27 35
-0.699267 -0.395307 1.399149 111 117 147
-0.699278 -0.395270 1.399170 147 157 186
-0.699266 -0.395310 1.399148 92 92 123
-0.699266 -0.395310 1.399148 92 92 123
-0.699266 -0.395310 1.399148 92 92 123
-0.699277 -0.395272 1.399169 56 66 92
-0.699293 -0.395218 1.399200 127 126 130
-0.699293 -0.395218 1.399200 127 126 130
-0.699292 -0.395219 1.399200 37 35 41
-0.699291 -0.395225 1.399197 44 38 44
-0.699291 -0.395224 1.399197 37 36 44
-0.699277 -0.395272 1.399170 181 190 222
-0.699282 -0.395255 1.399181 108 104 126
-0.699283 -0.395252 1.399182 231 233 238
-0.699297 -0.395204 1.399209 35 35 40
-0.699296 -0.395206 1.399208 30 34 39
-0.699296 -0.395206 1.399208 30 34 39
-0.699294 -0.395214 1.399204 134 131 133
-0.699297 -0.395205 1.399209 115 116 117
-0.699278 -0.395271 1.399172 147 156 184
-0.699295 -0.395212 1.399206 125 122 126
-0.699281 -0.395262 1.399178 155 151 157
-0.699295 -0.395210 1.399207 119 119 124
-0.699277 -0.395274 1.399171 88 103 130
-0.699297 -0.395203 1.399211 26 27 28
-0.699280 -0.395265 1.399176 46 55 87
-0.699296 -0.395207 1.399209 119 119 119
-0.699277 -0.395276 1.399171 73 82 110
-0.699277 -0.395274 1.399172 150 159 188
-0.699278 -0.395274 1.399172 164 174 203
-0.699295 -0.395211 1.399208 29 28 37
-0.699294 -0.395215 1.399206 25 26 35
-0.699284 -0.395251 1.399186 211 211 211
-0.699283 -0.395254 1.399184 237 234 236
-0.699276 -0.395279 1.399170 157 166 198
-0.699282 -0.395257 1.399182 63 74 120
-0.699267 -0.395311 1.399152 241 242 245
-0.699277 -0.395278 1.399171 80 90 119
-0.699292 -0.395225 1.399201 28 32 45
-0.699276 -0.395279 1.399170 188 200 228
-0.699297 -0.395205 1.399212 115 112 114
-0.699284 -0.395253 1.399186 122 119 129
-0.699283 -0.395256 1.399184 239 236 238
-0.699297 -0.395207 1.399211 28 27 31
-0.699285 -0.395250 1.399188 36 43 65
-0.699293 -0.395221 1.399204 24 29 39
-0.699285 -0.395250 1.399188 36 42 60
-0.699297 -0.395208 1.399212 28 28 33
-0.699277 -0.395277 1.399173 163 173 202
-0.699275 -0.395282 1.399170 91 101 129
-0.699297 -0.395207 1.399213 31 29 35
-0.699288 -0.395237 1.399196 147 148 151
-0.699281 -0.395264 1.399181 64 62 84
-0.699287 -0.395244 1.399193 211 212 213
-0.699285 -0.395249 1.399190 123 126 134
-0.699277 -0.395279 1.399173 142 151 180
-0.699277 -0.395278 1.399174 103 112 144
-0.699282 -0.395260 1.399184 238 237 235
-0.699288 -0.395241 1.399195 45 48 65
-0.699284 -0.395254 1.399188 222 217 221
-0.699281 -0.395264 1.399183 47 49 74
-0.699292 -0.395228 1.399204 134 135 136
-0.699278 -0.395276 1.399177 164 173 202
-0.699278 -0.395276 1.399177 164 173 202
-0.699276 -0.395282 1.399173 148 157 185
-0.699289 -0.395237 1.399199 41 38 52
-0.699286 -0.395249 1.399193 42 46 70
-0.699293 -0.395224 1.399207 123 124 127
-0.699287 -0.395243 1.399197 60 58 69
-0.699297 -0.395208 1.399217 21 25 30
-0.699288 -0.395241 1.399199 141 142 145
-0.699294 -0.395221 1.399210 115 118 121
-0.699290 -0.395234 1.399204 99 102 111
-0.699275 -0.395287 1.399173 151 163 192
-0.699276 -0.395285 1.399174 135 146 178
-0.699290 -0.395235 1.399203 100 104 109
-0.699268 -0.395314 1.399158 222 225 240
-0.699268 -0.395314 1.399158 222 225 240
-0.699274 -0.395293 1.399171 53 63 91
-0.699269 -0.395312 1.399161 120 125 147
-0.699268 -0.395312 1.399161 231 232 240
-0.699297 -0.395211 1.399218 61 62 65
-0.699289 -0.395240 1.399203 45 43 54
-0.699275 -0.395290 1.399175 27 37 65
-0.699294 -0.395225 1.399212 63 66 69
-0.699268 -0.395313 1.399163 114 112 130
-0.699295 -0.395220 1.399216 66 67 70
-0.699290 -0.395237 1.399207 30 29 37
-0.699294 -0.395226 1.399214 77 78 79
-0.699279 -0.395276 1.399185 189 198 227
-0.699275 -0.395290 1.399178 177 183 212
-0.699268 -0.395316 1.399163 229 232 247
-0.699292 -0.395233 1.399211 35 36 37
-0.699276 -0.395288 1.399180 175 184 212
-0.699275 -0.395293 1.399177 104 113 142
-0.699269 -0.395315 1.399164 235 236 245
-0.699299 -0.395209 1.399225 83 84 85
-0.699293 -0.395229 1.399214 34 35 36
-0.699276 -0.395291 1.399179 25 31 55
-0.699288 -0.395248 1.399204 143 144 145
-0.699272 -0.395305 1.399172 231 235 240
-0.699289 -0.395243 1.399208 43 47 52
-0.699288 -0.395250 1.399204 31 30 34
-0.699269 -0.395313 1.399168 119 128 157
-0.699289 -0.395245 1.399208 125 126 129
-0.699289 -0.395245 1.399208 125 126 129
-0.699294 -0.395227 1.399219 48 53 54
-0.699294 -0.395227 1.399220 114 119 120
-0.699288 -0.395251 1.399207 155 156 159
-0.699275 -0.395296 1.399181 122 134 157
-0.699269 -0.395318 1.399169 232 236 241
-0.699297 -0.395219 1.399225 21 22 25
-0.699275 -0.395297 1.399182 57 66 94
-0.699269 -0.395320 1.399169 84 93 122
-0.699269 -0.395318 1.399170 233 230 234
-0.699302 -0.395202 1.399236 58 63 66
-0.699269 -0.395318 1.399170 241 236 240
-0.699276 -0.395293 1.399185 150 158 170
-0.699292 -0.395239 1.399216 27 29 40
-0.699302 -0.395203 1.399237 164 169 172
-0.699269 -0.395319 1.399171 105 100 115
-0.699269 -0.395319 1.399171 105 100 115
-0.699276 -0.395293 1.399186 149 151 156
-0.699276 -0.395293 1.399186 149 151 156
-0.699276 -0.395294 1.399185 175 178 181
-0.699273 -0.395307 1.399179 254 255 255
-0.699270 -0.395318 1.399173 107 101 113
-0.699291 -0.395241 1.399217 115 114 116
-0.699289 -0.395251 1.399212 165 164 173
-0.699289 -0.395251 1.399212 165 164 173
-0.699269 -0.395319 1.399173 249 246 255
-0.699269 -0.395320 1.399173 236 235 249
-0.699269 -0.395320 1.399173 236 235 249
-0.699293 -0.395236 1.399221 31 30 44
-0.699293 -0.395236 1.399221 31 30 44
-0.699288 -0.395254 1.399211 174 175 183
-0.699289 -0.395250 1.399213 158 154 160
-0.699288 -0.395255 1.399210 91 92 100
-0.699277 -0.395293 1.399189 31 32 46
-0.699277 -0.395293 1.399189 161 166 183
-0.699273 -0.395306 1.399182 245 248 255
-0.699276 -0.395295 1.399188 189 189 194
-0.699290 -0.395248 1.399215 42 44 63
-0.699277 -0.395294 1.399189 45 40 55
-0.699277 -0.395293 1.399190 169 180 203
-0.699276 -0.395298 1.399187 191 206 225
-0.699293 -0.395238 1.399222 125 126 129
-0.699291 -0.395245 1.399218 137 138 139
-0.699294 -0.395233 1.399225 36 39 48
-0.699277 -0.395296 1.399189 188 185 187
-0.699277 -0.395293 1.399191 50 61 84
-0.699292 -0.395244 1.399220 132 133 136
-0.699291 -0.395246 1.399219 158 157 161
-0.699277 -0.395295 1.399191 121 125 138
-0.699291 -0.395245 1.399220 150 149 151
-0.699293 -0.395240 1.399223 48 47 55
-0.699293 -0.395240 1.399223 48 47 55
-0.699292 -0.395243 1.399222 37 35 51
-0.699289 -0.395253 1.399216 54 56 75
-0.699293 -0.395238 1.399224 44 42 53
-0.699295 -0.395234 1.399227 35 37 48
-0.699294 -0.395236 1.399226 114 114 119
-0.699277 -0.395295 1.399192 167 166 168
-0.699275 -0.395301 1.399189 214 213 215
-0.699294 -0.395236 1.399227 117 117 122
-0.699294 -0.395236 1.399227 117 117 122
-0.699295 -0.395233 1.399228 93 95 100
-0.699295 -0.395233 1.399228 93 95 100
-0.699296 -0.395232 1.399230 38 39 53
-0.699294 -0.395237 1.399227 52 51 55
-0.699276 -0.395301 1.399190 213 211 217
-0.699293 -0.395242 1.399225 158 156 156
-0.699277 -0.395297 1.399194 41 41 57
-0.699294 -0.395238 1.399227 116 117 126
-0.699296 -0.395230 1.399232 28 32 45
-0.699271 -0.395319 1.399181 117 123 153
-0.699292 -0.395245 1.399224 39 36 56
-0.699278 -0.395295 1.399195 31 34 55
-0.699292 -0.395247 1.399224 161 161 166
-0.699294 -0.395237 1.399229 119 118 126
-0.699294 -0.395237 1.399229 119 118 126
-0.699293 -0.395241 1.399227 36 38 57
-0.699270 -0.395322 1.399181 86 93 127
-0.699291 -0.395249 1.399223 166 162 162
-0.699293 -0.395244 1.399227 41 38 48
-0.699278 -0.395296 1.399198 27 30 45
-0.699270 -0.395324 1.399182 87 92 114
-0.699271 -0.395322 1.399184 236 233 235
-0.699271 -0.395322 1.399184 236 233 235
-0.699293 -0.395244 1.399229 160 159 161
-0.699278 -0.395296 1.399199 125 126 134
-0.699288 -0.395261 1.399219 62 68 86
-0.699297 -0.395230 1.399237 140 140 145
-0.699288 -0.395261 1.399220 60 65 87
-0.699296 -0.395233 1.399236 156 156 161
-0.699289 -0.395260 1.399221 69 76 92
-0.699278 -0.395298 1.399199 37 38 46
-0.699297 -0.395233 1.399237 69 70 73
-0.699299 -0.395226 1.399241 133 133 133
-0.699288 -0.395263 1.399221 191 192 195
-0.699278 -0.395297 1.399201 22 23 31
-0.699296 -0.395236 1.399236 35 38 61
-0.699291 -0.395254 1.399226 49 58 80
-0.699298 -0.395229 1.399240 140 142 147
-0.699271 -0.395324 1.399187 104 105 114
-0.699282 -0.395285 1.399209 164 174 203
-0.699295 -0.395239 1.399235 38 38 56
-0.699271 -0.395324 1.399187 91 88 97
-0.699295 -0.395239 1.399236 42 40 64
-0.699288 -0.395264 1.399221 40 41 49
-0.699289 -0.395261 1.399224 193 194 195
-0.699277 -0.395302 1.399200 198 204 222
-0.699297 -0.395233 1.399239 153 155 154
-0.699271 -0.395325 1.399187 218 215 217
-0.699271 -0.395324 1.399188 206 202 208
-0.699288 -0.395267 1.399221 116 123 133
-0.699288 -0.395267 1.399221 116 123 133
-0.699273 -0.395320 1.399192 231 237 245
-0.699289 -0.395263 1.399224 81 80 89
-0.699282 -0.395287 1.399211 245 250 255
-0.699282 -0.395287 1.399211 245 250 255
-0.699279 -0.395297 1.399204 112 115 124
-0.699279 -0.395298 1.399205 32 35 44
-0.699290 -0.395261 1.399227 86 84 95
-0.699300 -0.395223 1.399248 146 145 147
-0.699300 -0.395223 1.399248 146 145 147
-0.699272 -0.395324 1.399191 216 211 213
-0.699278 -0.395301 1.399204 34 39 56
-0.699272 -0.395323 1.399192 217 212 214
-0.699295 -0.395243 1.399238 35 42 69
-0.699297 -0.395236 1.399242 194 186 189
-0.699297 -0.395236 1.399242 194 186 189
-0.699283 -0.395286 1.399214 175 185 211
-0.699279 -0.395301 1.399205 36 36 47
-0.699279 -0.395301 1.399205 36 36 47
-0.699274 -0.395318 1.399196 254 255 255
-0.699294 -0.395248 1.399237 37 42 69
-0.699283 -0.395287 1.399214 110 116 140
-0.699272 -0.395326 1.399192 86 85 99
-0.699293 -0.395252 1.399235 41 50 70
-0.699272 -0.395324 1.399193 227 218 221
-0.699288 -0.395267 1.399226 34 39 49
-0.699282 -0.395289 1.399213 153 159 188
-0.699282 -0.395289 1.399213 153 159 188
-0.699298 -0.395233 1.399246 61 60 74
-0.699294 -0.395250 1.399237 43 49 73
-0.699302 -0.395219 1.399255 24 29 44
-0.699293 -0.395254 1.399235 173 172 176
-0.699293 -0.395254 1.399235 173 172 176
-0.699279 -0.395303 1.399208 38 42 55
-0.699298 -0.395234 1.399248 183 182 184
-0.699276 -0.395313 1.399202 223 219 219
-0.699273 -0.395322 1.399198 226 227 235
-0.699280 -0.395299 1.399211 88 89 92
-0.699293 -0.395252 1.399238 177 177 182
-0.699293 -0.395252 1.399238 177 177 182
-0.699302 -0.395222 1.399255 164 165 166
-0.699302 -0.395222 1.399255 164 165 166
-0.699289 -0.395267 1.399230 162 162 167
-0.699279 -0.395303 1.399209 110 113 116
-0.699279 -0.395303 1.399209 110 113 116
-0.699272 -0.395327 1.399196 77 81 100
-0.699287 -0.395273 1.399227 131 135 154
-0.699275 -0.395315 1.399202 237 237 242
-0.699275 -0.395315 1.399202 237 237 242
-0.699300 -0.395229 1.399252 53 53 69
-0.699289 -0.395268 1.399230 197 197 208
-0.699304 -0.395216 1.399260 112 113 116
-0.699275 -0.395318 1.399202 201 203 208
-0.699275 -0.395318 1.399202 243 245 250
-0.699294 -0.395250 1.399241 167 170 173
-0.699306 -0.395210 1.399264 126 124 124
-0.699293 -0.395254 1.399239 66 67 75
-0.699295 -0.395246 1.399243 43 51 75
-0.699274 -0.395323 1.399200 117 122 132
-0.699272 -0.395329 1.399197 70 70 86
-0.699304 -0.395218 1.399260 64 63 71
-0.699279 -0.395303 1.399212 34 35 43
-0.699282 -0.395293 1.399217 128 135 157
-0.699280 -0.395300 1.399213 31 32 40
-0.699277 -0.395311 1.399207 228 225 227
-0.699275 -0.395317 1.399204 236 237 240
-0.699294 -0.395252 1.399241 61 60 74
-0.699293 -0.395256 1.399240 165 166 169
-0.699281 -0.395299 1.399215 44 51 71
-0.699296 -0.395245 1.399246 45 52 79
-0.699292 -0.395261 1.399237 125 125 136
-0.699295 -0.395248 1.399244 173 175 180
-0.699282 -0.395296 1.399218 133 141 165
-0.699302 -0.395226 1.399257 171 172 175
-0.699272 -0.395329 1.399199 203 202 206
-0.699279 -0.395304 1.399213 129 130 138
-0.699298 -0.395238 1.399251 35 45 79
-0.699297 -0.395243 1.399248 39 48 77
-0.699296 -0.395247 1.399247 178 179 182
-0.699293 -0.395258 1.399242 88 92 105
-0.699295 -0.395249 1.399246 49 52 69
-0.699295 -0.395249 1.399246 49 52 69
-0.699280 -0.395304 1.399215 114 112 112
-0.699280 -0.395304 1.399215 114 112 112
-0.699280 -0.395304 1.399215 114 112 112
-0.699295 -0.395253 1.399245 166 163 167
-0.699272 -0.395330 1.399201 97 93 99
-0.699272 -0.395330 1.399201 97 93 99
-0.699272 -0.395330 1.399201 97 93 99
-0.699275 -0.395322 1.399206 237 238 241
-0.699302 -0.395227 1.399260 45 44 72
-0.699297 -0.395245 1.399250 187 190 193
-0.699275 -0.395320 1.399207 252 252 255
-0.699290 -0.395271 1.399235 143 148 158
-0.699281 -0.395300 1.399219 126 132 150
-0.699277 -0.395316 1.399210 189 186 190
-0.699296 -0.395249 1.399248 55 54 74
-0.699294 -0.395256 1.399244 61 64 81
-0.699295 -0.395251 1.399247 168 165 169
-0.699284 -0.395292 1.399225 57 62 82
-0.699277 -0.395316 1.399210 191 186 188
-0.699274 -0.395327 1.399204 112 111 120
-0.699301 -0.395232 1.399259 58 65 92
-0.699280 -0.395305 1.399217 104 102 102
-0.699276 -0.395318 1.399210 179 176 178
-0.699296 -0.395250 1.399249 174 176 181
-0.699277 -0.395317 1.399211 186 181 185
-0.699299 -0.395240 1.399256 38 48 82
-0.699273 -0.395329 1.399204 78 78 89
-0.699277 -0.395318 1.399211 176 175 179
-0.699299 -0.395241 1.399255 184 187 195
-0.699304 -0.395222 1.399266 165 163 169
-0.699281 -0.395302 1.399221 151 154 162
-0.699281 -0.395302 1.399221 151 154 162
-0.699276 -0.395319 1.399211 176 175 177
-0.699284 -0.395291 1.399227 124 129 144
-0.699268 -0.395347 1.399195 50 53 56
-0.699278 -0.395312 1.399215 146 145 147
-0.699297 -0.395245 1.399253 70 69 89
-0.699297 -0.395245 1.399253 70 69 89
-0.699277 -0.395318 1.399212 99 96 98
-0.699268 -0.395350 1.399194 46 45 47
-0.699296 -0.395249 1.399252 173 170 172
-0.699280 -0.395305 1.399220 36 37 40
-0.699280 -0.395305 1.399220 36 37 40
-0.699267 -0.395353 1.399193 55 54 58
-0.699294 -0.395257 1.399247 252 253 255
-0.699269 -0.395348 1.399196 119 121 126
-0.699267 -0.395351 1.399194 43 41 47
-0.699306 -0.395217 1.399271 47 44 53
-0.699297 -0.395248 1.399254 195 191 191
-0.699301 -0.395234 1.399262 238 244 252
-0.699269 -0.395346 1.399198 37 40 48
-0.699275 -0.395326 1.399209 188 190 195
-0.699276 -0.395321 1.399213 214 214 219
-0.699300 -0.395239 1.399260 191 199 206
-0.699299 -0.395242 1.399258 79 82 99
-0.699268 -0.395350 1.399196 26 28 33
-0.699277 -0.395318 1.399215 66 64 70
-0.699302 -0.395233 1.399264 222 233 247
-0.699302 -0.395233 1.399264 222 233 247
-0.699277 -0.395320 1.399214 161 162 163
-0.699277 -0.395317 1.399215 159 161 166
-0.699295 -0.395257 1.399250 138 140 151
-0.699295 -0.395257 1.399250 138 140 151
-0.699276 -0.395322 1.399213 207 211 216
-0.699268 -0.395352 1.399196 24 25 33
-0.699298 -0.395246 1.399257 199 196 198
-0.699301 -0.395235 1.399263 60 70 96
-0.699295 -0.395256 1.399251 159 161 166
-0.699295 -0.395256 1.399251 159 161 166
-0.699298 -0.395245 1.399258 63 63 79
-0.699277 -0.395318 1.399216 151 154 157
-0.699269 -0.395347 1.399200 36 39 47
-0.699268 -0.395353 1.399197 19 24 34
-0.699268 -0.395352 1.399197 154 153 161
-0.699301 -0.395234 1.399265 94 93 113
-0.699290 -0.395274 1.399242 132 138 146
-0.699271 -0.395343 1.399203 74 75 76
-0.699269 -0.395348 1.399200 141 144 152
-0.699299 -0.395244 1.399259 198 197 201
-0.699281 -0.395307 1.399223 108 107 109
-0.699281 -0.395307 1.399223 108 107 109
-0.699273 -0.395335 1.399208 153 154 157
-0.699269 -0.395349 1.399200 143 144 152
-0.699299 -0.395243 1.399261 194 196 201
-0.699269 -0.395350 1.399200 158 161 169
-0.699271 -0.395343 1.399205 49 50 53
-0.699274 -0.395332 1.399211 77 77 82
-0.699275 -0.395330 1.399212 124 126 131
-0.699275 -0.395330 1.399212 124 126 131
-0.699268 -0.395355 1.399198 34 39 56
-0.699269 -0.395351 1.399200 26 27 35
-0.699268 -0.395351 1.399200 157 159 170
-0.699283 -0.395301 1.399230 153 164 190
-0.699270 -0.395345 1.399204 110 116 123
-0.699306 -0.395221 1.399275 59 59 64
-0.699298 -0.395250 1.399259 42 48 77
-0.699303 -0.395231 1.399269 35 48 83
-0.699282 -0.395305 1.399227 132 135 150
-0.699288 -0.395282 1.399241 152 155 163
-0.699273 -0.395338 1.399209 68 69 72
-0.699274 -0.395331 1.399212 70 77 81
-0.699291 -0.395274 1.399246 148 149 157
-0.699300 -0.395242 1.399264 206 203 207
-0.699272 -0.395341 1.399207 146 148 153
-0.699304 -0.395226 1.399273 109 118 147
-0.699297 -0.395252 1.399258 172 169 171
-0.699272 -0.395339 1.399209 110 110 115
-0.699271 -0.395342 1.399207 150 149 158
-0.699271 -0.395342 1.399207 150 149 158
-0.699302 -0.395236 1.399268 225 222 224
-0.699289 -0.395281 1.399243 158 166 174
-0.699301 -0.395238 1.399267 78 78 94
-0.699302 -0.395234 1.399269 49 56 94
-0.699299 -0.395246 1.399262 44 51 85
-0.699275 -0.395329 1.399215 40 39 47
-0.699275 -0.395329 1.399215 40 39 47
-0.699281 -0.395308 1.399227 36 37 40
-0.699275 -0.395330 1.399215 107 109 114
-0.699307 -0.395220 1.399279 41 44 53
-0.699307 -0.395218 1.399280 116 119 122
-0.699281 -0.395309 1.399228 85 86 87
-0.699281 -0.395309 1.399228 85 86 87
-0.699293 -0.395267 1.399253 158 158 169
-0.699306 -0.395222 1.399278 150 150 150
-0.699283 -0.395306 1.399232 112 120 144
-0.699299 -0.395249 1.399263 208 208 208
-0.699305 -0.395227 1.399276 61 70 99
-0.699301 -0.395241 1.399268 74 72 96
-0.699301 -0.395241 1.399268 74 72 96
-0.699275 -0.395334 1.399216 52 53 61
-0.699275 -0.395331 1.399218 51 50 59
-0.699268 -0.395358 1.399202 179 174 189
-0.699302 -0.395238 1.399271 226 225 227
-0.699302 -0.395238 1.399271 226 225 227
-0.699306 -0.395225 1.399279 36 43 65
-0.699303 -0.395237 1.399273 56 64 104
-0.699276 -0.395329 1.399221 50 53 62
-0.699301 -0.395242 1.399271 238 241 238
-0.699268 -0.395359 1.399204 45 48 69
-0.699302 -0.395240 1.399272 77 78 106
-0.699302 -0.395240 1.399272 77 78 106
-0.699290 -0.395283 1.399249 133 135 140
-0.699278 -0.395324 1.399226 71 72 75
-0.699291 -0.395281 1.399251 61 61 77
-0.699279 -0.395324 1.399228 93 93 98
-0.699277 -0.395329 1.399225 152 153 167
-0.699278 -0.395327 1.399226 52 51 65
-0.699278 -0.395328 1.399226 137 140 157
-0.699306 -0.395229 1.399283 79 80 94
-0.699278 -0.395327 1.399228 68 68 79
-0.699280 -0.395321 1.399231 171 172 175
-0.699311 -0.395209 1.399295 29 34 44
-0.699306 -0.395228 1.399284 154 155 158
-0.699269 -0.395360 1.399210 33 37 67
-0.699310 -0.395214 1.399293 33 36 37
-0.699278 -0.395328 1.399229 128 128 144
-0.699268 -0.395364 1.399208 243 249 255
-0.699303 -0.395239 1.399280 231 238 242
-0.699303 -0.395239 1.399280 231 238 242
-0.699281 -0.395318 1.399236 101 101 106
-0.699293 -0.395277 1.399260 139 141 146
-0.699268 -0.395365 1.399209 98 106 140
-0.699289 -0.395290 1.399253 252 255 255
-0.699272 -0.395351 1.399218 106 113 147
-0.699280 -0.395321 1.399235 49 48 56
-0.699306 -0.395233 1.399286 63 73 107
-0.699281 -0.395320 1.399236 113 113 118
-0.699272 -0.395352 1.399218 19 27 61
-0.699306 -0.395230 1.399288 155 154 156
-0.699280 -0.395324 1.399234 70 68 84
-0.699270 -0.395360 1.399214 28 32 67
-0.699307 -0.395229 1.399289 62 62 67
-0.699281 -0.395322 1.399236 111 112 121
-0.699304 -0.395238 1.399284 52 65 104
-0.699267 -0.395369 1.399209 52 52 70
-0.699295 -0.395272 1.399265 51 54 69
-0.699307 -0.395228 1.399291 149 152 155
-0.699267 -0.395370 1.399213 167 170 197
-0.699267 -0.395370 1.399213 167 170 197
-0.699294 -0.395279 1.399265 174 174 179
-0.699312 -0.395214 1.399304 28 33 34
-0.699271 -0.395360 1.399220 74 81 108
-0.699296 -0.395271 1.399272 136 136 136
-0.699268 -0.395370 1.399216 246 249 255
-0.699270 -0.395362 1.399221 230 240 255
-0.699271 -0.395360 1.399222 74 84 110
-0.699269 -0.395368 1.399217 133 145 182
-0.699269 -0.395369 1.399218 50 57 95
-0.699268 -0.395370 1.399218 101 101 136
-0.699305 -0.395242 1.399290 197 199 218
-0.699269 -0.395368 1.399219 38 50 93
-0.699271 -0.395361 1.399223 246 251 255
-0.699305 -0.395240 1.399292 179 186 208
-0.699271 -0.395361 1.399224 238 244 255
-0.699305 -0.395241 1.399292 108 118 146
-0.699268 -0.395372 1.399218 120 120 138
-0.699308 -0.395232 1.399298 151 152 153
-0.699270 -0.395366 1.399222 105 71 90
-0.699269 -0.395368 1.399221 242 249 255
-0.699312 -0.395219 1.399306 154 166 167
-0.699271 -0.395362 1.399225 104 101 115
-0.699283 -0.395320 1.399249 115 118 127
-0.699283 -0.395321 1.399248 124 125 134
-0.699283 -0.395321 1.399248 124 125 134
-0.699272 -0.395359 1.399227 84 91 118
-0.699270 -0.395365 1.399223 186 187 215
-0.699283 -0.395323 1.399248 118 121 130
-0.699283 -0.395323 1.399248 118 121 130
-0.699271 -0.395363 1.399225 106 104 120
-0.699268 -0.395373 1.399220 108 104 133
-0.699283 -0.395321 1.399250 42 45 54
-0.699280 -0.395333 1.399243 53 62 94
-0.699270 -0.395366 1.399225 42 46 75
-0.699279 -0.395335 1.399243 53 60 96
-0.699313 -0.395216 1.399311 237 252 255
-0.699283 -0.395323 1.399250 118 119 127
-0.699282 -0.395324 1.399249 104 110 117
-0.699282 -0.395324 1.399249 104 110 117
-0.699280 -0.395334 1.399246 59 67 101
-0.699271 -0.395366 1.399227 135 145 174
-0.699280 -0.395333 1.399246 197 203 232
-0.699296 -0.395278 1.399278 57 66 82
-0.699270 -0.395368 1.399227 194 196 226
-0.699273 -0.395358 1.399233 110 117 151
-0.699309 -0.395232 1.399305 90 98 100
-0.699271 -0.395367 1.399230 88 97 126
-0.699271 -0.395369 1.399229 197 195 219
-0.699298 -0.395273 1.399284 125 128 136
-0.699301 -0.395264 1.399289 37 43 61
-0.699301 -0.395264 1.399289 37 43 61
-0.699313 -0.395220 1.399314 82 95 98
-0.699271 -0.395367 1.399232 248 252 255
-0.699285 -0.395321 1.399259 133 136 144
-0.699272 -0.395368 1.399235 104 95 126
-0.699304 -0.395254 1.399300 70 80 116
-0.699276 -0.395353 1.399244 128 133 166
-0.699284 -0.395325 1.399260 247 254 255
-0.699284 -0.395325 1.399260 247 254 255
-0.699272 -0.395370 1.399236 101 96 122
-0.699314 -0.395222 1.399320 96 108 114
-0.699314 -0.395223 1.399320 69 79 86
-0.699314 -0.395223 1.399320 69 79 86
-0.699293 -0.395296 1.399279 117 127 153
-0.699271 -0.395372 1.399236 55 62 96
-0.699305 -0.395253 1.399304 254 255 255
-0.699277 -0.395354 1.399249 80 83 116
-0.699285 -0.395327 1.399266 84 92 94
-0.699296 -0.395288 1.399288 74 77 94
-0.699294 -0.395296 1.399284 114 125 148
-0.699272 -0.395373 1.399241 223 237 255
-0.699285 -0.395326 1.399268 153 158 161
-0.699285 -0.395326 1.399268 153 158 161
-0.699279 -0.395349 1.399256 116 111 142
-0.699272 -0.395373 1.399242 92 102 128
-0.699307 -0.395250 1.399313 55 66 114
-0.699284 -0.395331 1.399267 153 161 163
-0.699281 -0.395342 1.399262 76 80 110
-0.699306 -0.395256 1.399311 154 156 181
-0.699306 -0.395256 1.399311 154 156 181
-0.699285 -0.395328 1.399270 96 110 125
-0.699281 -0.395343 1.399262 195 199 228
-0.699295 -0.395297 1.399289 223 225 230
-0.699286 -0.395329 1.399272 231 254 255
-0.699274 -0.395369 1.399249 71 81 129
-0.699317 -0.395220 1.399335 33 38 39
-0.699294 -0.395301 1.399290 149 158 178
-0.699286 -0.395331 1.399273 220 222 227
-0.699286 -0.395331 1.399274 68 70 75
-0.699297 -0.395290 1.399298 63 70 92
-0.699295 -0.395299 1.399293 136 136 152
-0.699295 -0.395299 1.399293 136 136 152
-0.699307 -0.395257 1.399317 255 255 255
-0.699299 -0.395285 1.399303 62 65 80
-0.699272 -0.395378 1.399250 70 79 117
-0.699295 -0.395301 1.399296 228 231 239
-0.699284 -0.395339 1.399275 130 136 143
-0.699273 -0.395378 1.399252 121 133 170
-0.699273 -0.395378 1.399252 121 133 170
-0.699296 -0.395300 1.399298 227 228 231
-0.699273 -0.395380 1.399252 201 196 205
-0.699312 -0.395243 1.399332 102 112 114
-0.699273 -0.395380 1.399254 138 139 167
-0.699295 -0.395303 1.399298 124 132 156
-0.699273 -0.395381 1.399254 217 215 215
-0.699273 -0.395381 1.399254 217 215 215
-0.699274 -0.395379 1.399255 239 253 255
-0.699274 -0.395379 1.399255 239 253 255
-0.699273 -0.395381 1.399254 255 255 255
-0.699284 -0.395341 1.399277 132 138 146
-0.699310 -0.395251 1.399329 237 250 255
-0.699310 -0.395251 1.399329 237 250 255
-0.699298 -0.395294 1.399306 85 87 98
-0.699298 -0.395294 1.399306 85 87 98
-0.699296 -0.395302 1.399301 123 130 150
-0.699296 -0.395302 1.399301 123 130 150
-0.699273 -0.395381 1.399256 255 254 255
-0.699273 -0.395381 1.399256 255 254 255
-0.699274 -0.395378 1.399258 127 137 171
-0.699274 -0.395380 1.399258 255 249 255
-0.699274 -0.395381 1.399258 69 69 94
-0.699299 -0.395293 1.399309 191 190 194
-0.699274 -0.395380 1.399259 85 85 101
-0.699274 -0.395380 1.399259 108 104 128
-0.699273 -0.395383 1.399258 83 84 117
-0.699273 -0.395383 1.399258 83 84 117
-0.699274 -0.395381 1.399260 158 161 194
-0.699275 -0.395378 1.399261 109 117 149
-0.699274 -0.395380 1.399261 193 195 225
-0.699296 -0.395304 1.399305 230 233 236
-0.699296 -0.395304 1.399305 230 233 236
-0.699291 -0.395324 1.399294 139 149 177
-0.699275 -0.395378 1.399262 241 249 255
-0.699275 -0.395379 1.399265 238 251 255
-0.699288 -0.395334 1.399292 181 195 202
-0.699288 -0.395334 1.399292 181 195 202
-0.699275 -0.395379 1.399266 107 119 142
-0.699301 -0.395289 1.399318 63 69 87
-0.699300 -0.395295 1.399315 65 73 97
-0.699274 -0.395386 1.399264 158 157 165
-0.699276 -0.395380 1.399268 131 140 178
-0.699274 -0.395386 1.399266 116 122 152
-0.699319 -0.395229 1.399357 39 36 38
-0.699297 -0.395307 1.399313 231 234 237
-0.699300 -0.395297 1.399319 66 74 98
-0.699301 -0.395296 1.399320 146 147 155
-0.699284 -0.395352 1.399288 201 209 227
-0.699314 -0.395247 1.399349 72 82 84
-0.699285 -0.395353 1.399290 71 74 97
-0.699279 -0.395371 1.399279 79 87 119
-0.699289 -0.395337 1.399299 107 113 126
-0.699284 -0.395355 1.399290 121 130 159
-0.699276 -0.395384 1.399273 100 110 158
-0.699301 -0.395296 1.399324 88 87 101
-0.699302 -0.395294 1.399325 69 73 86
-0.699280 -0.395369 1.399283 85 92 128
-0.699276 -0.395384 1.399275 93 99 146
-0.699290 -0.395337 1.399302 243 255 255
-0.699290 -0.395337 1.399302 243 255 255
-0.699299 -0.395307 1.399320 207 208 216
-0.699298 -0.395309 1.399319 227 228 229
-0.699302 -0.395296 1.399327 167 168 171
-0.699290 -0.395338 1.399304 48 54 61
-0.699290 -0.395339 1.399304 57 64 68
-0.699298 -0.395311 1.399320 140 147 167
-0.699318 -0.395237 1.399361 24 38 39
-0.699290 -0.395339 1.399305 214 222 229
-0.699285 -0.395356 1.399294 255 254 255
-0.699318 -0.395241 1.399360 155 171 172
-0.699318 -0.395241 1.399360 155 171 172
-0.699299 -0.395309 1.399323 127 133 151
-0.699299 -0.395307 1.399324 106 118 139
-0.699290 -0.395339 1.399306 103 112 121
-0.699277 -0.395386 1.399279 157 151 186
-0.699284 -0.395363 1.399295 154 158 188
-0.699290 -0.395340 1.399308 68 70 75
-0.699321 -0.395231 1.399370 102 104 109
-0.699303 -0.395297 1.399334 159 161 166
-0.699319 -0.395238 1.399367 245 255 255
-0.699319 -0.395238 1.399367 245 255 255
-0.699280 -0.395378 1.399289 125 139 186
-0.699277 -0.395386 1.399284 62 62 103
-0.699318 -0.395242 1.399366 29 33 32
-0.699302 -0.395300 1.399334 183 182 186
-0.699286 -0.395358 1.399300 89 102 137
-0.699286 -0.395358 1.399300 89 102 137
-0.699318 -0.395242 1.399366 26 30 29
-0.699302 -0.395302 1.399333 190 194 193
-0.699302 -0.395302 1.399333 190 194 193
-0.699278 -0.395385 1.399286 61 64 111
-0.699278 -0.395387 1.399285 52 52 89
-0.699291 -0.395340 1.399312 138 154 162
-0.699291 -0.395341 1.399312 162 173 187
-0.699278 -0.395385 1.399287 139 136 170
-0.699278 -0.395387 1.399286 140 136 174
-0.699302 -0.395303 1.399335 191 192 193
-0.699302 -0.395301 1.399335 78 80 99
-0.699303 -0.395299 1.399337 74 74 92
-0.699287 -0.395357 1.399304 102 102 113
-0.699299 -0.395314 1.399330 170 176 194
-0.699283 -0.395368 1.399299 116 129 168
-0.699300 -0.395312 1.399331 126 130 149
-0.699300 -0.395312 1.399331 126 130 149
-0.699277 -0.395391 1.399286 41 57 104
-0.699285 -0.395364 1.399302 124 137 170
-0.699285 -0.395364 1.399302 124 137 170
-0.699279 -0.395386 1.399290 207 200 221
-0.699277 -0.395391 1.399287 89 107 149
-0.699279 -0.395386 1.399292 61 59 107
-0.699300 -0.395314 1.399335 231 232 235
-0.699300 -0.395313 1.399337 229 229 229
-0.699303 -0.395306 1.399342 69 77 101
-0.699304 -0.395300 1.399346 68 72 91
-0.699300 -0.395316 1.399337 122 134 155
-0.699292 -0.395342 1.399323 67 70 71
-0.699301 -0.395315 1.399340 116 125 145
-0.699301 -0.395315 1.399340 116 125 145
-0.699280 -0.395387 1.399299 116 121 165
-0.699278 -0.395394 1.399295 40 50 93
-0.699294 -0.395339 1.399327 153 159 167
-0.699304 -0.395305 1.399349 188 189 190
-0.699280 -0.395390 1.399300 116 127 173
-0.699301 -0.395317 1.399343 229 234 235
-0.699281 -0.395388 1.399303 103 115 158
-0.699305 -0.395304 1.399352 78 81 98
-0.699302 -0.395314 1.399347 109 116 143
-0.699305 -0.395306 1.399352 142 142 147
-0.699305 -0.395306 1.399352 142 142 147
-0.699302 -0.395318 1.399348 143 146 161
-0.699301 -0.395319 1.399348 127 136 158
-0.699282 -0.395387 1.399309 137 153 195
-0.699306 -0.395305 1.399357 160 161 162
-0.699306 -0.395305 1.399357 160 161 162
-0.699294 -0.395346 1.399333 90 101 110
-0.699281 -0.395392 1.399308 28 43 88
-0.699303 -0.395316 1.399351 108 120 141
-0.699285 -0.395378 1.399318 109 122 165
-0.699302 -0.395319 1.399352 221 227 234
-0.699303 -0.395318 1.399355 224 225 228
-0.699303 -0.395316 1.399356 100 112 135
-0.699303 -0.395320 1.399356 121 129 147
-0.699307 -0.395306 1.399365 67 70 87
-0.699303 -0.395319 1.399358 209 212 215
-0.699303 -0.395322 1.399357 225 228 236
-0.699309 -0.395299 1.399370 55 58 66
-0.699303 -0.395321 1.399360 131 137 155
-0.699303 -0.395324 1.399360 132 139 159
-0.699284 -0.395388 1.399323 41 48 62
-0.699295 -0.395350 1.399345 63 71 73
-0.699304 -0.395320 1.399363 99 110 133
-0.699296 -0.395350 1.399347 248 255 255
-0.699310 -0.395299 1.399377 137 140 143
-0.699306 -0.395315 1.399369 82 84 103
-0.699306 -0.395315 1.399369 82 84 103
-0.699301 -0.395332 1.399360 208 218 236
-0.699304 -0.395322 1.399366 221 224 227
-0.699306 -0.395317 1.399369 206 203 205
-0.699297 -0.395348 1.399354 138 141 144
-0.699304 -0.395324 1.399368 115 122 142
-0.699297 -0.395347 1.399355 68 76 110
-0.699296 -0.395351 1.399353 60 64 69
-0.699296 -0.395351 1.399353 59 62 65
-0.699285 -0.395391 1.399331 142 145 148
-0.699295 -0.395357 1.399352 37 40 55
