ply
format ascii 1.0
element vertex 1082
property float x
property float y
property float z
property uchar red
property uchar green
property uchar blue
end_header
-85.268349 -48.374016 170.985214 92 112 130
-85.269325 -48.363682 170.987167 86 95 104
-85.268089 -48.367973 170.984711 8 24 35
-85.268578 -48.362564 170.985703 180 238 254
-85.268936 -48.364899 170.986435 90 102 108
-85.268166 -48.375343 170.984924 138 170 188
-85.268295 -48.370514 170.985275 203 236 255
-85.267403 -48.368156 170.983521 132 166 191
-85.268349 -48.377239 170.985428 93 106 115
-85.268120 -48.373726 170.985016 179 207 224
-85.269341 -48.359791 170.987473 99 126 155
-85.268272 -48.377815 170.985321 49 52 55
-85.268555 -48.370834 170.985886 143 164 182
-85.268661 -48.363178 170.986130 188 216 222
-85.268524 -48.367207 170.985870 71 88 101
-85.270447 -48.359577 170.989746 70 97 118
-85.268013 -48.377121 170.984879 89 98 107
-85.268082 -48.375267 170.985031 139 168 177
-85.268112 -48.377762 170.985107 144 147 155
-85.268250 -48.377464 170.985428 136 152 169
-85.268250 -48.377464 170.985428 136 152 169
-85.268806 -48.374290 170.986542 97 104 114
-85.268166 -48.377136 170.985260 181 208 223
-85.268585 -48.366741 170.986115 88 103 114
-85.268135 -48.373852 170.985245 191 223 239
-85.267494 -48.374844 170.983963 168 192 199
-85.268417 -48.376118 170.985809 88 99 108
-85.267853 -48.370129 170.984695 89 110 128
-85.267952 -48.373814 170.984894 98 109 118
-85.268280 -48.377415 170.985596 87 96 110
-85.267990 -48.377205 170.985046 174 184 196
-85.268044 -48.376720 170.985153 180 236 255
-85.269958 -48.359959 170.989029 155 203 240
-85.269958 -48.359959 170.989029 155 203 240
-85.268227 -48.370571 170.985580 234 247 255
-85.267471 -48.373909 170.984085 8 31 52
-85.267952 -48.376637 170.985046 51 83 99
-85.267899 -48.375027 170.984955 130 137 151
-85.268074 -48.367512 170.985306 76 95 103
-85.268028 -48.376743 170.985245 35 76 97
-85.268028 -48.376743 170.985245 35 76 97
-85.268021 -48.370399 170.985214 159 185 198
-85.268837 -48.373245 170.986908 165 208 224
-85.267715 -48.375168 170.984650 220 254 255
-85.267860 -48.375175 170.984940 202 225 235
-85.268036 -48.364075 170.985306 125 142 150
-85.267883 -48.376621 170.985016 200 232 250
-85.267570 -48.370251 170.984421 150 172 184
-85.268417 -48.363731 170.986130 109 125 136
-85.268082 -48.377419 170.985443 85 96 105
-85.267952 -48.375137 170.985229 123 131 139
-85.267685 -48.373470 170.984695 80 111 127
-85.268204 -48.373707 170.985764 76 91 106
-85.267845 -48.370422 170.985062 171 194 206
-85.267998 -48.375362 170.985397 214 254 255
-85.267822 -48.373634 170.985046 201 235 251
-85.267899 -48.376667 170.985214 49 79 99
-85.268242 -48.378170 170.985901 41 42 43
-85.267860 -48.376560 170.985153 193 238 252
-85.267860 -48.376560 170.985153 193 238 252
-85.268204 -48.377735 170.985840 137 151 166
-85.269600 -48.360519 170.988632 111 118 128
-85.267822 -48.375229 170.985092 48 65 80
-85.268028 -48.375008 170.985504 60 81 97
-85.267723 -48.374962 170.984909 16 29 38
-85.267738 -48.376434 170.984955 53 62 90
-85.267738 -48.376434 170.984955 53 62 90
-85.267990 -48.370518 170.985458 34 54 66
-85.268051 -48.376228 170.985580 179 235 254
-85.267967 -48.373642 170.985413 178 197 205
-85.267967 -48.373642 170.985413 178 197 205
-85.268059 -48.375305 170.985611 120 126 134
-85.267746 -48.373592 170.984985 70 102 116
-85.267746 -48.371002 170.985001 12 15 18
-85.267738 -48.370468 170.985001 184 200 211
-85.267807 -48.363602 170.985138 43 51 58
-85.268196 -48.366489 170.985916 122 140 151
-85.267799 -48.377258 170.985123 104 113 122
-85.268074 -48.370483 170.985672 37 76 95
-85.267670 -48.373619 170.984894 184 230 248
-85.267525 -48.375004 170.984589 106 114 121
-85.267830 -48.370590 170.985214 116 127 136
-85.268852 -48.371250 170.987274 87 101 114
-85.267815 -48.376797 170.985199 173 227 252
-85.267899 -48.373573 170.985352 65 74 88
-85.267899 -48.373573 170.985352 65 74 88
-85.267776 -48.376617 170.985123 189 227 249
-85.267776 -48.376617 170.985123 189 227 249
-85.267670 -48.376804 170.984924 186 220 245
-85.267830 -48.376595 170.985245 48 88 111
-85.269760 -48.360149 170.989120 35 71 96
-85.269760 -48.360149 170.989120 35 71 96
-85.268227 -48.371223 170.986069 118 120 125
-85.267944 -48.376530 170.985489 170 240 255
-85.267540 -48.373356 170.984695 192 203 217
-85.267860 -48.373489 170.985352 61 87 100
-85.267700 -48.377342 170.985031 97 105 113
-85.267700 -48.377342 170.985031 97 105 113
-85.268959 -48.363316 170.987549 122 145 166
-85.267700 -48.377773 170.985062 130 136 143
-85.267303 -48.363941 170.984268 42 54 66
-85.267479 -48.373386 170.984634 51 74 84
-85.267479 -48.373386 170.984634 51 74 84
-85.267738 -48.373394 170.985153 192 221 236
-85.267921 -48.375095 170.985519 57 65 72
-85.267853 -48.376598 170.985397 210 243 255
-85.267853 -48.376598 170.985397 210 243 255
-85.268013 -48.376823 170.985733 68 79 95
-85.267670 -48.376568 170.985046 64 85 101
-85.267654 -48.373634 170.985031 61 86 107
-85.267624 -48.373985 170.985001 222 248 255
-85.267738 -48.367020 170.985245 85 102 110
-85.269180 -48.359653 170.988129 163 191 204
-85.267746 -48.369080 170.985291 42 80 111
-85.267448 -48.373940 170.984680 99 108 124
-85.267967 -48.374920 170.985764 7 30 44
-85.267563 -48.376602 170.984985 219 247 255
-85.267776 -48.370739 170.985428 141 156 171
-85.267853 -48.370487 170.985580 77 116 135
-85.268867 -48.362572 170.987625 108 128 140
-85.267586 -48.370808 170.985062 103 107 112
-85.267616 -48.370892 170.985123 113 122 126
-85.267181 -48.376202 170.984253 171 216 244
-85.266914 -48.363873 170.983734 237 249 255
-85.266914 -48.363873 170.983734 237 249 255
-85.267059 -48.377064 170.984039 115 125 132
-85.268127 -48.370525 170.986176 94 122 141
-85.267693 -48.376945 170.985321 181 230 255
-85.268433 -48.362698 170.986832 100 115 128
-85.267548 -48.367416 170.985031 57 75 86
-85.267197 -48.373459 170.984344 212 236 253
-85.267433 -48.373642 170.984833 70 91 109
-85.267967 -48.373993 170.985931 200 243 255
-85.267632 -48.376770 170.985275 185 194 216
-85.267632 -48.376770 170.985275 185 194 216
-85.267448 -48.373466 170.984924 60 96 115
-85.267448 -48.373466 170.984924 60 96 115
-85.267563 -48.376808 170.985153 74 89 104
-85.268120 -48.367062 170.986298 8 14 21
-85.267998 -48.360325 170.986084 114 129 142
-85.268730 -48.367012 170.987564 21 24 27
-85.267982 -48.364681 170.986069 46 45 49
-85.267586 -48.372559 170.985275 152 181 196
-85.268089 -48.363556 170.986282 30 46 54
-85.267654 -48.377026 170.985428 187 224 248
-85.267288 -48.373463 170.984695 216 243 255
-85.267380 -48.376652 170.984894 55 65 83
-85.267548 -48.376904 170.985214 55 87 103
-85.268341 -48.362507 170.986816 182 209 218
-85.268341 -48.362507 170.986816 182 209 218
-85.267555 -48.375378 170.985245 108 114 122
-85.267532 -48.376560 170.985199 40 77 99
-85.267532 -48.376560 170.985199 40 77 99
-85.267609 -48.376549 170.985367 182 235 255
-85.267998 -48.367672 170.986130 7 20 29
-85.268066 -48.367432 170.986282 5 17 29
-85.267395 -48.375229 170.984955 46 53 67
-85.267662 -48.376686 170.985489 190 243 255
-85.267601 -48.376740 170.985352 213 245 255
-85.266510 -48.369484 170.983200 83 134 171
-85.267632 -48.370792 170.985458 55 75 93
-85.267647 -48.373711 170.985519 64 81 96
-85.267662 -48.376862 170.985565 204 232 251
-85.267754 -48.373932 170.985764 49 85 104
-85.267754 -48.373932 170.985764 49 85 104
-85.267754 -48.373932 170.985764 49 85 104
-85.267052 -48.375790 170.984360 182 242 255
-85.267326 -48.377350 170.984894 196 222 241
-85.267540 -48.375336 170.985321 144 151 161
-85.267776 -48.376984 170.985825 72 97 118
-85.267776 -48.376984 170.985825 72 97 118
-85.267349 -48.376865 170.984970 65 84 100
-85.267792 -48.377171 170.985870 207 245 255
-85.267792 -48.377171 170.985870 207 245 255
-85.267410 -48.370632 170.985123 44 65 81
-85.267441 -48.377274 170.985168 167 204 228
-85.267509 -48.376568 170.985306 191 239 255
-85.267670 -48.370598 170.985641 126 143 158
-85.267456 -48.376717 170.985199 179 229 251
-85.267441 -48.376366 170.985214 183 237 255
-85.267220 -48.372707 170.984756 168 205 222
-85.266922 -48.368320 170.984161 89 128 155
-85.267410 -48.376595 170.985168 44 86 109
-85.267410 -48.376595 170.985168 44 86 109
-85.267700 -48.373829 170.985733 194 239 255
-85.267418 -48.373795 170.985184 222 250 255
-85.267387 -48.375381 170.985123 99 107 114
-85.267708 -48.370991 170.985764 10 12 17
-85.267563 -48.377945 170.985474 124 140 157
-85.267799 -48.377842 170.985947 98 108 115
-85.267517 -48.372631 170.985397 67 74 84
-85.267448 -48.373878 170.985260 77 115 137
-85.267448 -48.373878 170.985260 77 115 137
-85.267685 -48.378429 170.985733 50 51 52
-85.267464 -48.378002 170.985321 86 93 103
-85.267525 -48.377140 170.985474 189 232 253
-85.266327 -48.368759 170.983078 133 155 162
-85.267273 -48.372597 170.985001 189 205 213
-85.267792 -48.373470 170.986038 100 142 166
-85.267792 -48.373470 170.986038 100 142 166
-85.267418 -48.376617 170.985291 192 236 255
-85.267326 -48.376633 170.985107 36 83 105
-85.267662 -48.373444 170.985779 199 247 255
-85.267563 -48.370857 170.985596 250 254 255
-85.267563 -48.370857 170.985596 250 254 255
-85.267181 -48.372326 170.984833 85 102 117
-85.267181 -48.372326 170.984833 85 102 117
-85.266876 -48.372040 170.984238 151 177 194
-85.267365 -48.372818 170.985229 68 83 96
-85.267365 -48.372818 170.985229 68 83 96
-85.267426 -48.376820 170.985352 190 234 255
-85.267426 -48.376820 170.985352 190 234 255
-85.267281 -48.376083 170.985077 203 242 255
-85.267166 -48.376091 170.984879 173 233 251
-85.267105 -48.376877 170.984756 66 90 109
-85.267052 -48.373558 170.984665 214 251 255
-85.267166 -48.372608 170.984879 81 95 108
-85.267448 -48.373737 170.985474 42 86 109
-85.267448 -48.373737 170.985474 42 86 109
-85.267616 -48.372734 170.985794 78 89 103
-85.267296 -48.373749 170.985168 54 91 113
-85.267067 -48.372364 170.984711 168 197 206
-85.267357 -48.372784 170.985306 197 213 221
-85.267357 -48.372784 170.985306 197 213 221
-85.267258 -48.375042 170.985107 98 113 124
-85.266083 -48.369526 170.982773 86 112 125
-85.265717 -48.369141 170.982071 87 124 148
-85.267319 -48.375374 170.985260 215 240 245
-85.267326 -48.372677 170.985291 83 94 110
-85.267479 -48.373817 170.985580 119 151 174
-85.267418 -48.376579 170.985489 172 235 255
-85.267448 -48.373734 170.985535 205 242 255
-85.267281 -48.373180 170.985214 188 230 253
-85.267601 -48.376495 170.985855 66 84 109
-85.267601 -48.376495 170.985855 66 84 109
-85.266479 -48.370205 170.983627 20 29 38
-85.267204 -48.377930 170.985062 131 146 161
-85.267220 -48.373100 170.985107 53 90 115
-85.267220 -48.373100 170.985107 53 90 115
-85.267342 -48.376152 170.985382 51 82 102
-85.267342 -48.372459 170.985382 165 189 196
-85.267532 -48.376190 170.985779 234 253 255
-85.266808 -48.368870 170.984329 147 170 182
-85.267670 -48.376270 170.986053 216 244 255
-85.267067 -48.368721 170.984848 31 65 83
-85.267410 -48.376041 170.985550 90 108 126
-85.267448 -48.372654 170.985611 175 197 209
-85.267220 -48.377258 170.985168 68 92 109
-85.266983 -48.376053 170.984711 196 246 255
-85.267441 -48.372589 170.985626 70 93 107
-85.267273 -48.377205 170.985306 165 218 247
-85.269104 -48.360069 170.988998 201 224 234
-85.269104 -48.360069 170.988998 201 224 234
-85.267586 -48.372574 170.985962 72 86 93
-85.267212 -48.373219 170.985214 64 90 114
-85.268707 -48.364445 170.988220 35 51 68
-85.266251 -48.368763 170.983322 34 53 69
-85.267258 -48.372643 170.985352 69 80 89
-85.267273 -48.368622 170.985382 97 123 134
-85.267258 -48.377342 170.985336 79 101 115
-85.267410 -48.373280 170.985657 197 226 249
-85.267982 -48.362804 170.986816 109 119 126
-85.267578 -48.378361 170.986038 80 88 96
-85.267235 -48.375450 170.985336 145 195 218
-85.266930 -48.375305 170.984741 160 216 238
-85.267242 -48.375641 170.985367 206 249 255
-85.267181 -48.376480 170.985245 188 243 255
-85.267220 -48.377323 170.985352 143 158 171
-85.266449 -48.372253 170.983810 200 235 249
-85.267029 -48.373142 170.984985 218 248 255
-85.267662 -48.371799 170.986252 61 79 90
-85.267113 -48.376175 170.985153 75 88 107
-85.267220 -48.377262 170.985367 84 100 117
-85.267258 -48.372562 170.985458 175 209 225
-85.266998 -48.372269 170.984940 74 87 96
-85.267006 -48.373032 170.984970 194 241 255
-85.267288 -48.376495 170.985550 63 88 109
-85.267136 -48.374512 170.985260 167 191 208
-85.266998 -48.373188 170.984970 69 104 126
-85.266998 -48.373188 170.984970 69 104 126
-85.267143 -48.368328 170.985275 24 59 73
-85.266922 -48.371593 170.984863 179 234 255
-85.266960 -48.375233 170.984955 93 117 127
-85.267349 -48.373055 170.985733 180 228 248
-85.266747 -48.372845 170.984543 188 238 255
-85.267303 -48.371078 170.985672 9 32 42
-85.267303 -48.371078 170.985672 9 32 42
-85.267113 -48.372337 170.985321 175 200 215
-85.267113 -48.372337 170.985321 175 200 215
-85.267212 -48.377289 170.985519 192 217 238
-85.266129 -48.369198 170.983368 112 134 146
-85.267311 -48.377571 170.985718 177 218 239
-85.266457 -48.372448 170.984009 195 238 255
-85.267975 -48.364166 170.987061 135 157 171
-85.267151 -48.371319 170.985413 89 120 138
-85.266724 -48.372601 170.984558 195 238 255
-85.267601 -48.365944 170.986313 26 27 28
-85.267601 -48.365944 170.986313 26 27 28
-85.267273 -48.366837 170.985672 14 18 23
-85.267273 -48.366837 170.985672 14 18 23
-85.267006 -48.372391 170.985123 81 95 108
-85.266991 -48.372578 170.985107 185 228 244
-85.267136 -48.376472 170.985413 219 253 255
-85.267136 -48.376472 170.985413 219 253 255
-85.267036 -48.372845 170.985229 57 91 115
-85.267319 -48.378563 170.985809 95 105 112
-85.267998 -48.364414 170.987183 14 30 38
-85.266960 -48.372871 170.985092 217 254 255
-85.267334 -48.371140 170.985870 107 133 157
-85.268509 -48.379528 170.988235 41 43 42
-85.267181 -48.373116 170.985565 74 115 142
-85.266823 -48.376007 170.984863 72 87 106
-85.266823 -48.376007 170.984863 72 87 106
-85.267281 -48.377419 170.985794 182 206 225
-85.266563 -48.368317 170.984360 119 135 146
-85.267342 -48.377571 170.985916 182 203 221
-85.267342 -48.377571 170.985916 182 203 221
-85.266937 -48.376484 170.985138 60 84 103
-85.266937 -48.376484 170.985138 60 84 103
-85.267181 -48.373051 170.985626 193 249 255
-85.267181 -48.373051 170.985626 193 249 255
-85.267120 -48.374596 170.985535 146 158 170
-85.266930 -48.372807 170.985138 205 230 251
-85.266914 -48.373390 170.985107 202 251 255
-85.267204 -48.372189 170.985703 80 94 111
-85.266975 -48.372757 170.985245 202 244 255
-85.266670 -48.367924 170.984665 75 121 147
-85.266891 -48.373016 170.985107 86 117 143
-85.266891 -48.373016 170.985107 86 117 143
-85.265640 -48.368877 170.982620 80 102 118
-85.265640 -48.368877 170.982620 80 102 118
-85.267563 -48.377705 170.986481 194 222 241
-85.266960 -48.372284 170.985275 82 93 109
-85.267097 -48.377678 170.985550 173 215 238
-85.267395 -48.373653 170.986145 176 239 255
-85.266960 -48.372826 170.985275 210 246 255
-85.268517 -48.362637 170.988419 199 216 222
-85.266808 -48.374619 170.984985 100 118 129
-85.266975 -48.376385 170.985336 52 80 97
-85.266975 -48.376385 170.985336 52 80 97
-85.266724 -48.373329 170.984833 78 103 130
-85.267273 -48.371681 170.985947 186 235 255
-85.267273 -48.371681 170.985947 186 235 255
-85.266922 -48.372154 170.985245 181 213 229
-85.266922 -48.372154 170.985245 181 213 229
-85.266449 -48.374470 170.984314 11 37 50
-85.266304 -48.369534 170.984039 124 146 158
-85.266899 -48.371967 170.985214 183 209 222
-85.266899 -48.371967 170.985214 183 209 222
-85.266991 -48.373528 170.985397 225 250 255
-85.266396 -48.372204 170.984222 192 232 247
-85.267609 -48.363007 170.986649 214 228 241
-85.265694 -48.368816 170.982834 32 53 69
-85.267136 -48.378746 170.985718 108 112 117
-85.267044 -48.373573 170.985550 188 213 239
-85.267029 -48.377922 170.985504 174 190 198
-85.267105 -48.373650 170.985672 80 108 137
-85.267220 -48.364433 170.985901 114 122 134
-85.266960 -48.372761 170.985413 208 237 255
-85.266945 -48.377495 170.985367 68 78 85
-85.267021 -48.375618 170.985535 204 238 255
-85.265892 -48.369759 170.983261 11 23 35
-85.266739 -48.372555 170.984970 181 229 252
-85.266762 -48.372608 170.985016 58 95 120
-85.266762 -48.372608 170.985016 58 95 120
-85.267189 -48.378857 170.985886 41 44 45
-85.267006 -48.373474 170.985535 108 154 182
-85.267052 -48.377007 170.985611 178 233 254
-85.266922 -48.373512 170.985382 72 100 125
-85.267067 -48.376339 170.985703 52 70 95
-85.267067 -48.376339 170.985703 52 70 95
-85.266907 -48.377777 170.985382 171 203 217
-85.268295 -48.362991 170.988159 31 32 33
-85.266991 -48.372952 170.985565 203 246 255
-85.266792 -48.373508 170.985199 222 251 255
-85.266792 -48.373508 170.985199 222 251 255
-85.266830 -48.376305 170.985275 186 233 255
-85.266853 -48.373596 170.985321 103 140 165
-85.266708 -48.364914 170.985016 48 49 50
-85.266960 -48.372204 170.985550 75 99 116
-85.266960 -48.372204 170.985550 75 99 116
-85.266190 -48.368885 170.984009 35 65 85
-85.266991 -48.373009 170.985611 99 147 169
-85.266991 -48.373009 170.985611 99 147 169
-85.267189 -48.375729 170.986008 80 97 110
-85.267059 -48.373547 170.985779 109 157 185
-85.267059 -48.373547 170.985779 109 157 185
-85.266869 -48.377548 170.985397 70 78 90
-85.266991 -48.374725 170.985672 158 165 169
-85.266968 -48.372559 170.985626 196 240 255
-85.267982 -48.364429 170.987671 86 123 138
-85.266975 -48.371544 170.985657 71 92 110
-85.266823 -48.372055 170.985367 202 222 234
-85.266823 -48.372055 170.985367 202 222 234
-85.266594 -48.372707 170.984909 190 241 255
-85.266861 -48.372547 170.985443 81 125 148
-85.266777 -48.372650 170.985321 190 242 253
-85.266777 -48.372650 170.985321 190 242 253
-85.267090 -48.379025 170.985947 47 49 48
-85.266899 -48.378040 170.985580 174 191 197
-85.266815 -48.372871 170.985428 99 149 166
-85.266815 -48.372871 170.985428 99 149 166
-85.266960 -48.369316 170.985718 66 87 107
-85.267052 -48.374714 170.985916 121 124 132
-85.266762 -48.373146 170.985336 185 245 255
-85.267014 -48.374729 170.985840 182 184 189
-85.267189 -48.378330 170.986221 103 114 123
-85.266670 -48.373302 170.985199 97 138 165
-85.267014 -48.375843 170.985886 195 235 252
-85.266479 -48.377136 170.984802 178 231 255
-85.266991 -48.376419 170.985840 208 229 247
-85.266907 -48.376373 170.985687 208 229 247
-85.266876 -48.373516 170.985611 100 159 185
-85.266495 -48.372318 170.984863 80 109 134
-85.266693 -48.371960 170.985260 94 105 119
-85.267159 -48.365185 170.986206 130 137 141
-85.266830 -48.373211 170.985550 58 111 133
-85.266830 -48.373211 170.985550 58 111 133
-85.266670 -48.377609 170.985245 177 216 231
-85.266945 -48.373238 170.985809 196 252 255
-85.266472 -48.372433 170.984863 108 153 174
-85.266472 -48.372433 170.984863 108 153 174
-85.266647 -48.377750 170.985229 177 214 238
-85.266678 -48.373215 170.985306 194 248 255
-85.266678 -48.373215 170.985306 194 248 255
-85.265648 -48.369324 170.983231 53 79 98
-85.266693 -48.372959 170.985336 206 250 255
-85.266289 -48.371956 170.984543 189 234 248
-85.266708 -48.373341 170.985382 215 248 255
-85.266273 -48.371403 170.984528 171 212 233
-85.266830 -48.371716 170.985657 176 213 230
-85.266998 -48.372211 170.986008 198 232 248
-85.266228 -48.373013 170.984467 178 213 241
-85.266747 -48.373501 170.985535 118 173 194
-85.266747 -48.373501 170.985535 118 173 194
-85.266090 -48.369930 170.984222 170 190 202
-85.267830 -48.364491 170.987701 68 99 119
-85.266609 -48.373268 170.985275 76 106 135
-85.266609 -48.373268 170.985275 76 106 135
-85.266953 -48.372543 170.985947 81 118 143
-85.265839 -48.369690 170.983734 167 182 195
-85.266815 -48.372593 170.985687 101 130 155
-85.266693 -48.373238 170.985443 70 117 143
-85.266632 -48.371616 170.985367 103 117 130
-85.265060 -48.372086 170.982239 204 249 255
-85.267822 -48.363308 170.987778 234 251 255
-85.266571 -48.373173 170.985275 211 253 255
-85.266670 -48.374882 170.985489 102 114 120
-85.266838 -48.371799 170.985825 177 220 236
-85.266235 -48.374191 170.984634 207 250 255
-85.266869 -48.364304 170.985931 142 153 162
-85.266663 -48.372669 170.985504 93 141 164
-85.266907 -48.378471 170.985977 109 119 131
-85.266624 -48.375435 170.985443 63 97 115
-85.266716 -48.378609 170.985626 125 139 154
-85.266403 -48.377369 170.985016 60 77 99
-85.266945 -48.372974 170.986099 205 249 255
-85.266548 -48.371643 170.985336 97 118 134
-85.266296 -48.372761 170.984833 191 244 255
-85.267342 -48.368931 170.986938 12 29 37
-85.267471 -48.364120 170.987198 94 141 167
-85.265633 -48.371193 170.983521 178 222 240
-85.266808 -48.374577 170.985886 93 105 117
-85.266586 -48.375561 170.985443 62 92 103
-85.266708 -48.372639 170.985687 84 118 142
-85.266701 -48.374531 170.985672 97 109 121
-85.266075 -48.369560 170.984436 252 255 255
-85.267166 -48.379196 170.986603 93 103 110
-85.266647 -48.377827 170.985611 176 223 249
-85.267273 -48.372791 170.986862 164 192 218
-85.266357 -48.378960 170.985031 33 36 37
-85.266388 -48.372017 170.985107 186 237 255
-85.266365 -48.372345 170.985062 160 191 217
-85.266884 -48.373131 170.986099 83 127 151
-85.266853 -48.373409 170.986053 102 144 173
-85.266647 -48.372257 170.985641 86 133 156
-85.267929 -48.367962 170.988220 20 21 22
-85.266533 -48.372971 170.985413 195 239 255
-85.266792 -48.374424 170.985962 204 255 255
-85.266502 -48.372486 170.985397 99 133 158
-85.266640 -48.377956 170.985657 59 90 110
-85.266617 -48.374371 170.985626 83 109 126
-85.266106 -48.376568 170.984604 176 235 255
-85.266678 -48.377594 170.985764 88 91 100
-85.266647 -48.377666 170.985703 207 228 246
-85.265854 -48.378033 170.984131 176 184 192
-85.266441 -48.372421 170.985291 192 221 247
-85.266724 -48.375618 170.985855 48 70 84
-85.266724 -48.375618 170.985855 48 70 84
-85.266052 -48.372818 170.984558 199 254 255
-85.266617 -48.372417 170.985672 157 191 216
-85.266449 -48.372925 170.985352 93 124 150
-85.266891 -48.379211 170.986221 113 123 130
-85.266418 -48.374035 170.985291 143 186 207
-85.266968 -48.374664 170.986404 242 252 255
-85.266891 -48.369995 170.986267 160 172 184
-85.266777 -48.377857 170.986008 79 88 104
-85.266655 -48.374310 170.985794 204 254 255
-85.266792 -48.368679 170.986069 37 54 69
-85.266647 -48.372280 170.985809 217 246 255
-85.266556 -48.377907 170.985611 168 199 225
-85.266556 -48.377907 170.985611 168 199 225
-85.266754 -48.375813 170.986023 74 97 111
-85.267349 -48.369465 170.987228 162 170 182
-85.267326 -48.367249 170.987198 45 56 72
-85.266533 -48.376915 170.985611 62 73 89
-85.266533 -48.376915 170.985611 62 73 89
-85.266426 -48.372807 170.985397 64 118 147
-85.267464 -48.367691 170.987457 50 58 60
-85.267464 -48.367691 170.987457 50 58 60
-85.266304 -48.378319 170.985153 179 196 204
-85.266899 -48.372643 170.986343 200 229 252
-85.266899 -48.372643 170.986343 200 229 252
-85.266289 -48.372910 170.985138 214 251 255
-85.266464 -48.373104 170.985489 191 245 255
-85.266449 -48.374073 170.985458 226 250 255
-85.266533 -48.377640 170.985626 97 117 137
-85.266953 -48.372852 170.986465 205 250 255
-85.266624 -48.374390 170.985825 87 96 105
-85.266647 -48.378658 170.985855 95 110 123
-85.266533 -48.372341 170.985657 200 238 255
-85.266754 -48.373230 170.986084 91 141 164
-85.266754 -48.373230 170.986084 91 141 164
-85.266792 -48.370197 170.986191 152 158 171
-85.266357 -48.372318 170.985306 105 142 164
-85.266357 -48.372318 170.985306 105 142 164
-85.266335 -48.374092 170.985291 233 248 255
-85.266335 -48.374092 170.985291 233 248 255
-85.266838 -48.374413 170.986313 52 64 76
-85.266434 -48.377872 170.985504 78 94 111
-85.266434 -48.377872 170.985504 78 94 111
-85.267105 -48.367004 170.986862 241 255 255
-85.266548 -48.369984 170.985748 201 232 252
-85.266418 -48.370262 170.985504 165 169 182
-85.266754 -48.377964 170.986176 187 226 253
-85.266159 -48.374783 170.984985 81 89 96
-85.266495 -48.374146 170.985672 72 84 91
-85.266495 -48.374146 170.985672 72 84 91
-85.266685 -48.377052 170.986069 201 234 246
-85.266426 -48.372303 170.985550 193 243 255
-85.266525 -48.379246 170.985748 213 224 238
-85.266266 -48.374447 170.985229 114 122 129
-85.266495 -48.377708 170.985718 80 88 96
-85.266357 -48.372730 170.985443 201 253 255
-85.266769 -48.373161 170.986282 201 253 255
-85.266342 -48.374889 170.985428 126 136 142
-85.266182 -48.372700 170.985123 193 243 255
-85.266182 -48.372700 170.985123 193 243 255
-85.266350 -48.372692 170.985458 95 142 174
-85.267334 -48.367626 170.987442 19 24 27
-85.266335 -48.372864 170.985489 180 228 250
-85.266342 -48.372772 170.985519 200 250 255
-85.266678 -48.372612 170.986191 201 247 255
-85.267326 -48.371120 170.987503 47 66 82
-85.267563 -48.367622 170.987991 252 255 255
-85.266319 -48.375092 170.985504 126 142 150
-85.266434 -48.372765 170.985718 182 226 250
-85.266212 -48.372154 170.985291 110 146 171
-85.266212 -48.372154 170.985291 110 146 171
-85.266350 -48.369091 170.985580 133 141 153
-85.265862 -48.374741 170.984619 111 122 131
-85.265862 -48.374741 170.984619 111 122 131
-85.266594 -48.374577 170.986099 125 132 136
-85.265869 -48.370060 170.984665 166 173 183
-85.266716 -48.375622 170.986389 0 12 18
-85.266304 -48.372822 170.985565 202 253 255
-85.266609 -48.375290 170.986206 0 10 21
-85.266579 -48.379383 170.986130 155 164 173
-85.266708 -48.366879 170.986404 21 31 43
-85.267487 -48.362305 170.987961 35 41 48
-85.267143 -48.366623 170.987289 15 16 17
-85.267204 -48.368870 170.987473 163 170 180
-85.267105 -48.367470 170.987259 251 254 255
-85.268051 -48.371674 170.989166 0 23 48
-85.266792 -48.375740 170.986649 80 95 106
-85.267128 -48.375645 170.987320 49 70 80
-85.266380 -48.378273 170.985825 80 105 126
-85.266380 -48.378273 170.985825 80 105 126
-85.266472 -48.375023 170.986023 130 140 147
-85.265366 -48.364414 170.983826 154 160 167
-85.266449 -48.377144 170.986008 182 237 253
-85.266281 -48.377995 170.985672 42 76 101
-85.266281 -48.377995 170.985672 42 76 101
-85.266747 -48.375309 170.986603 126 148 162
-85.266258 -48.375664 170.985626 26 57 73
-85.266434 -48.377007 170.985992 168 226 250
-85.266106 -48.372494 170.985352 104 152 175
-85.266106 -48.372494 170.985352 104 152 175
-85.266502 -48.375546 170.986130 61 84 96
-85.266434 -48.378014 170.986008 157 215 250
-85.266998 -48.375988 170.987167 22 52 65
-85.266441 -48.378216 170.986053 165 216 243
-85.266235 -48.378757 170.985626 114 139 160
-85.266525 -48.375214 170.986221 30 59 74
-85.267075 -48.367374 170.987350 31 51 65
-85.266441 -48.369904 170.986084 229 250 255
-85.266106 -48.372478 170.985413 204 248 255
-85.266617 -48.378475 170.986435 185 218 238
-85.266434 -48.377274 170.986084 183 233 255
-85.266777 -48.367077 170.986786 207 223 234
-85.266777 -48.367077 170.986786 207 223 234
-85.266457 -48.375961 170.986160 2 20 31
-85.266541 -48.378159 170.986328 78 95 117
-85.266541 -48.378159 170.986328 78 95 117
-85.265640 -48.372383 170.984543 141 198 226
-85.266289 -48.377121 170.985840 70 84 97
-85.266388 -48.378384 170.986053 183 220 242
-85.265572 -48.374504 170.984436 115 128 137
-85.266113 -48.375660 170.985535 128 137 146
-85.266876 -48.375313 170.987061 194 210 221
-85.266335 -48.375740 170.985977 143 151 163
-85.266884 -48.368000 170.987091 27 41 54
-85.266617 -48.375278 170.986542 24 50 67
-85.266846 -48.373043 170.987030 178 235 255
-85.266151 -48.374874 170.985672 170 192 204
-85.266083 -48.372589 170.985535 98 145 171
-85.266060 -48.376968 170.985489 209 234 249
-85.266182 -48.372559 170.985764 113 165 190
-85.266212 -48.372623 170.985825 202 249 255
-85.266159 -48.372448 170.985718 97 149 174
-85.266167 -48.378105 170.985733 59 83 102
-85.266251 -48.372452 170.985916 195 243 255
-85.266159 -48.372597 170.985718 199 246 255
-85.266083 -48.377270 170.985596 169 228 255
-85.265923 -48.372593 170.985275 120 177 203
-85.266319 -48.378124 170.986084 203 234 254
-85.266319 -48.378124 170.986084 203 234 254
-85.266403 -48.375748 170.986252 152 162 168
-85.269287 -48.363697 170.992020 93 90 99
-85.265823 -48.374657 170.985092 135 157 164
-85.266151 -48.372520 170.985748 200 248 255
-85.266266 -48.370502 170.986023 144 151 161
-85.266464 -48.379299 170.986404 201 216 229
-85.266624 -48.379467 170.986740 101 116 129
-85.266655 -48.364235 170.986801 140 154 167
-85.266518 -48.368050 170.986542 155 162 166
-85.266396 -48.377304 170.986298 186 237 255
-85.265457 -48.372093 170.984421 156 195 222
-85.266174 -48.378208 170.985870 173 218 246
-85.266113 -48.378284 170.985748 65 83 101
-85.266350 -48.378216 170.986282 73 86 112
-85.266350 -48.378216 170.986282 73 86 112
-85.266281 -48.378540 170.986130 64 101 123
-85.266281 -48.378540 170.986130 64 101 123
-85.266113 -48.377365 170.985794 72 79 99
-85.266113 -48.377365 170.985794 72 79 99
-85.266251 -48.378464 170.986084 185 228 249
-85.266167 -48.379604 170.985916 51 52 53
-85.266068 -48.372471 170.985718 108 144 172
-85.266449 -48.377914 170.986465 177 233 254
-85.266449 -48.377914 170.986465 177 233 254
-85.265884 -48.375362 170.985352 166 178 190
-85.266319 -48.379124 170.986237 123 133 140
-85.266235 -48.374115 170.986084 105 116 130
-85.267517 -48.370346 170.988663 236 252 255
-85.266373 -48.375233 170.986404 122 143 153
-85.266747 -48.367485 170.987152 86 110 120
-85.266747 -48.367485 170.987152 86 110 120
-85.266815 -48.371532 170.987274 21 52 77
-85.266205 -48.370655 170.986069 131 139 151
-85.265625 -48.374413 170.984909 114 134 148
-85.266655 -48.367466 170.986984 95 118 128
-85.266472 -48.378304 170.986633 193 234 255
-85.265976 -48.377235 170.985626 92 107 126
-85.266441 -48.367046 170.986588 28 43 56
-85.265770 -48.378761 170.985275 189 221 239
-85.266083 -48.378551 170.985886 116 158 181
-85.266014 -48.378036 170.985779 175 230 252
-85.266418 -48.367718 170.986603 138 141 144
-85.266167 -48.377232 170.986115 62 86 105
-85.266167 -48.377232 170.986115 62 86 105
-85.266487 -48.375767 170.986771 155 163 175
-85.266197 -48.378311 170.986191 175 229 255
-85.266197 -48.378311 170.986191 175 229 255
-85.266144 -48.375278 170.986099 18 38 50
-85.266304 -48.377457 170.986420 185 237 255
-85.266029 -48.374580 170.985886 195 227 241
-85.266502 -48.364025 170.986832 163 174 188
-85.266266 -48.379250 170.986374 191 212 230
-85.266373 -48.375046 170.986588 18 48 61
-85.266083 -48.374577 170.986023 100 120 132
-85.266251 -48.378716 170.986374 140 188 211
-85.265800 -48.376995 170.985474 176 223 249
-85.266045 -48.377987 170.985992 71 123 148
-85.266113 -48.378345 170.986145 53 83 103
-85.266205 -48.378498 170.986328 73 99 112
-85.265656 -48.366974 170.985229 26 57 75
-85.266029 -48.367470 170.986023 250 255 255
-85.266037 -48.377960 170.986053 168 221 243
-85.266022 -48.375690 170.986023 166 173 183
-85.266014 -48.378532 170.986008 79 83 96
-85.266014 -48.378532 170.986008 79 83 96
-85.266510 -48.367279 170.987030 239 251 255
-85.265633 -48.366287 170.985275 42 54 66
-85.265640 -48.379536 170.985306 51 52 55
-85.266281 -48.373985 170.986588 114 124 131
-85.265579 -48.375263 170.985199 123 133 140
-85.266342 -48.375202 170.986725 2 24 38
-85.266083 -48.369183 170.986221 227 255 255
-85.265701 -48.373981 170.985458 93 97 102
-85.266983 -48.367390 170.988022 146 185 200
-85.266457 -48.377708 170.986984 194 252 255
-85.265991 -48.378281 170.986053 176 224 246
-85.265991 -48.378281 170.986053 176 224 246
-85.266090 -48.375732 170.986267 105 116 125
-85.266090 -48.378338 170.986252 176 224 246
-85.265976 -48.378437 170.986023 196 238 255
-85.265984 -48.376522 170.986069 72 90 101
-85.266449 -48.376034 170.986984 83 91 99
-85.265816 -48.374088 170.985718 186 194 202
-85.265625 -48.375427 170.985382 176 188 195
-85.265884 -48.374371 170.985931 121 142 152
-85.265404 -48.375050 170.984940 81 91 103
-85.265747 -48.375370 170.985641 149 160 174
-85.265862 -48.374454 170.985901 49 64 75
-85.266510 -48.374977 170.987198 43 75 98
-85.265915 -48.375526 170.986023 226 238 245
-85.265236 -48.375324 170.984634 71 81 88
-85.265266 -48.375217 170.984726 166 177 186
-85.265930 -48.377934 170.986084 186 241 255
-85.265930 -48.377934 170.986084 186 241 255
-85.267296 -48.376728 170.988831 168 179 193
-85.266106 -48.378254 170.986450 198 237 254
-85.265587 -48.377583 170.985413 176 235 255
-85.265900 -48.378040 170.986038 188 222 246
-85.265167 -48.373871 170.984558 156 171 184
-85.266457 -48.367580 170.987167 114 165 192
-85.266312 -48.375961 170.986893 101 108 112
-85.265961 -48.366756 170.986191 86 120 136
-85.265694 -48.368801 170.985672 228 250 255
-85.266731 -48.367332 170.987747 143 193 215
-85.265945 -48.378223 170.986160 181 231 254
-85.266068 -48.374485 170.986420 39 67 86
-85.265976 -48.378716 170.986237 94 139 167
-85.265999 -48.375420 170.986282 208 223 236
-85.266319 -48.377609 170.986923 83 99 116
-85.266228 -48.377747 170.986755 183 234 254
-85.266228 -48.377747 170.986755 183 234 254
-85.265732 -48.378437 170.985764 74 90 107
-85.266472 -48.371082 170.987274 108 116 123
-85.266159 -48.378273 170.986649 128 168 192
-85.266159 -48.378273 170.986649 128 168 192
-85.265671 -48.375156 170.985672 37 59 75
-85.266144 -48.363586 170.986649 43 77 101
-85.265717 -48.373943 170.985794 171 177 184
-85.265968 -48.378498 170.986313 184 224 248
-85.266068 -48.377930 170.986511 37 79 102
-85.266068 -48.377930 170.986511 37 79 102
-85.266373 -48.374439 170.987122 137 143 156
-85.265724 -48.378532 170.985870 66 97 113
-85.266037 -48.375790 170.986496 99 107 115
-85.265739 -48.378510 170.985916 183 199 210
-85.265724 -48.376736 170.985916 200 246 255
-85.265732 -48.378269 170.985962 60 83 104
-85.265450 -48.377956 170.985397 191 237 255
-85.265518 -48.375290 170.985550 194 201 211
-85.265671 -48.378372 170.985855 75 89 102
-85.265671 -48.378372 170.985855 75 89 102
-85.265442 -48.373409 170.985397 150 165 176
-85.266685 -48.379494 170.987900 177 231 250
-85.266647 -48.379879 170.987839 93 102 111
-85.265808 -48.378269 170.986176 211 238 253
-85.265846 -48.378658 170.986252 194 236 255
-85.265686 -48.368145 170.985947 149 156 166
-85.265854 -48.377853 170.986282 197 244 255
-85.265854 -48.378605 170.986282 140 168 185
-85.265808 -48.378532 170.986206 188 208 220
-85.265717 -48.377918 170.986023 191 250 255
-85.265495 -48.375183 170.985565 109 118 132
-85.265495 -48.375183 170.985565 109 118 132
-85.266037 -48.371872 170.986679 79 125 159
-85.265648 -48.370068 170.985916 144 182 211
-85.266205 -48.375656 170.987030 189 197 209
-85.266006 -48.372227 170.986633 83 111 128
-85.265739 -48.375660 170.986115 198 218 236
-85.265739 -48.375660 170.986115 198 218 236
-85.265915 -48.370388 170.986496 129 159 188
-85.265762 -48.378082 170.986176 182 236 255
-85.265579 -48.373386 170.985809 99 109 121
-85.264656 -48.372540 170.983963 80 82 87
-85.265755 -48.378368 170.986176 84 107 121
-85.265755 -48.378368 170.986176 84 107 121
-85.265968 -48.374203 170.986618 128 143 154
-85.266205 -48.375378 170.987091 23 34 43
-85.265335 -48.372204 170.985352 116 150 168
-85.266106 -48.367325 170.986908 230 252 255
-85.265915 -48.371822 170.986542 61 114 153
-85.265251 -48.375000 170.985214 102 111 125
-85.265953 -48.378746 170.986618 132 181 207
-85.266373 -48.374916 170.987473 94 113 121
-85.266014 -48.367531 170.986755 43 81 100
-85.265854 -48.363773 170.986450 116 134 154
-85.265656 -48.370117 170.986053 205 234 255
-85.265923 -48.378551 170.986603 189 230 251
-85.265350 -48.369987 170.985458 138 174 198
-85.265411 -48.375851 170.985596 140 150 156
-85.266876 -48.368420 170.988525 165 172 182
-85.265121 -48.372650 170.985046 181 231 253
-85.265701 -48.374012 170.986206 141 156 167
-85.265800 -48.375481 170.986404 188 203 224
-85.266205 -48.372475 170.987213 96 118 134
-85.265327 -48.371838 170.985474 55 80 95
-85.265587 -48.378269 170.986023 130 178 208
-85.265587 -48.378269 170.986023 130 178 208
-85.265884 -48.378639 170.986618 194 237 255
-85.265266 -48.374989 170.985367 113 123 135
-85.265808 -48.375160 170.986481 30 43 52
-85.265945 -48.372238 170.986740 154 182 201
-85.265800 -48.376728 170.986465 73 102 117
-85.265884 -48.375385 170.986633 195 204 213
-85.265808 -48.376652 170.986481 0 12 26
-85.265930 -48.367764 170.986740 187 234 255
-85.265564 -48.378689 170.986008 181 240 254
-85.265686 -48.378651 170.986252 173 219 249
-85.265686 -48.378651 170.986252 173 219 249
-85.265457 -48.375031 170.985794 201 209 217
-85.265663 -48.376026 170.986221 227 242 255
-85.265480 -48.377647 170.985840 177 232 253
-85.265739 -48.375366 170.986374 176 188 200
-85.265739 -48.375366 170.986374 176 188 200
-85.265373 -48.376038 170.985672 121 140 156
-85.265854 -48.373631 170.986649 149 165 176
-85.265144 -48.374107 170.985245 63 86 98
-85.265579 -48.373299 170.986115 96 110 117
-85.266075 -48.375477 170.987106 176 187 201
-85.266747 -48.371834 170.988434 0 40 64
-85.265816 -48.370804 170.986588 143 146 155
-85.265450 -48.370068 170.985870 142 167 188
-85.265450 -48.370068 170.985870 142 167 188
-85.265137 -48.374657 170.985229 0 33 63
-85.265221 -48.369858 170.985413 199 233 251
-85.265411 -48.375141 170.985794 110 120 132
-85.266006 -48.372581 170.987000 165 199 231
-85.265511 -48.377529 170.986008 171 224 253
-85.265411 -48.369968 170.985794 205 237 253
-85.265869 -48.373615 170.986725 159 175 186
-85.265396 -48.378269 170.985779 187 233 251
-85.265968 -48.374660 170.986923 132 143 152
-85.265930 -48.375599 170.986862 120 135 154
-85.265930 -48.375599 170.986862 120 135 154
-85.265938 -48.374931 170.986877 124 147 161
-85.265816 -48.375221 170.986633 206 218 230
-85.265427 -48.373882 170.985870 118 138 150
-85.265686 -48.373711 170.986389 171 177 184
-85.265511 -48.373619 170.986053 163 169 176
-85.265358 -48.376099 170.985748 79 99 113
-85.265694 -48.375053 170.986420 18 29 43
-85.265785 -48.373631 170.986603 91 99 107
-85.265633 -48.373558 170.986343 108 111 114
-85.265755 -48.377048 170.986603 77 95 106
-85.264915 -48.370502 170.984940 105 114 123
-85.265480 -48.369576 170.986053 161 205 229
-85.265480 -48.369576 170.986053 161 205 229
-85.265923 -48.377861 170.986938 54 78 97
-85.265839 -48.367443 170.986801 131 143 150
-85.266144 -48.374783 170.987396 7 16 25
-85.265678 -48.376411 170.986465 6 27 37
-85.264618 -48.374622 170.984360 166 176 188
-85.265472 -48.366627 170.986069 209 226 234
-85.265625 -48.371872 170.986389 125 190 230
-85.265030 -48.372852 170.985184 143 153 159
-85.265289 -48.369698 170.985733 219 250 255
-85.265823 -48.375195 170.986801 190 192 197
-85.265266 -48.374950 170.985687 85 96 110
-85.265663 -48.375259 170.986511 135 144 153
-85.265709 -48.378162 170.986633 183 230 246
-85.265709 -48.378162 170.986633 183 230 246
-85.265587 -48.372612 170.986389 120 140 152
-85.265327 -48.376175 170.985886 137 157 171
-85.265236 -48.374748 170.985687 98 109 118
-85.265724 -48.373470 170.986694 150 168 179
-85.265511 -48.372879 170.986267 155 199 222
-85.265114 -48.369419 170.985474 211 244 255
-85.265823 -48.375240 170.986908 105 114 123
-85.265274 -48.373341 170.985809 73 80 84
-85.265800 -48.376896 170.986877 0 11 23
-85.264626 -48.374443 170.984512 73 79 87
-85.265289 -48.376003 170.985840 226 245 255
-85.265221 -48.373375 170.985718 167 171 176
-85.264725 -48.373970 170.984726 0 9 23
-85.266068 -48.372124 170.987427 32 89 121
-85.265457 -48.378151 170.986206 68 88 108
-85.264763 -48.374577 170.984818 205 213 221
-85.265083 -48.372917 170.985474 94 111 119
-85.265121 -48.369610 170.985580 159 199 222
-85.265373 -48.375011 170.986099 170 177 187
-85.264893 -48.374573 170.985153 87 95 103
-85.265289 -48.371979 170.985977 56 90 108
-85.265800 -48.377045 170.987000 64 94 107
-85.265495 -48.370491 170.986404 146 171 197
-85.265495 -48.370491 170.986404 146 171 197
-85.265572 -48.374767 170.986557 3 25 39
-85.265457 -48.375355 170.986313 179 194 207
-85.265717 -48.376881 170.986847 46 66 78
-85.265984 -48.373768 170.987381 166 173 177
-85.265327 -48.378117 170.986084 208 243 255
-85.264366 -48.365540 170.984177 215 239 246
-85.266136 -48.371861 170.987701 66 105 132
-85.265472 -48.375015 170.986389 119 126 136
-85.265213 -48.377918 170.985886 200 252 255
-85.265846 -48.365437 170.987137 163 186 213
-85.265251 -48.375198 170.985962 115 129 144
-85.265572 -48.375477 170.986633 82 97 116
-85.265182 -48.369289 170.985855 206 244 255
-85.265480 -48.376221 170.986435 208 234 251
-85.265244 -48.375000 170.985992 117 122 132
-85.265282 -48.376163 170.986069 127 136 145
-85.265541 -48.376453 170.986603 152 166 181
-85.265587 -48.366940 170.986694 126 129 132
-85.264923 -48.373386 170.985382 133 152 160
-85.264824 -48.372669 170.985199 134 142 149
-85.265587 -48.370667 170.986755 193 225 243
-85.265312 -48.377831 170.986221 64 103 130
-85.265503 -48.375008 170.986618 119 127 135
-85.264687 -48.368877 170.984985 175 217 246
-85.265404 -48.376232 170.986404 217 241 255
-85.265228 -48.370396 170.986084 121 136 151
-85.264900 -48.374973 170.985428 120 128 136
-85.265465 -48.378101 170.986557 60 71 87
-85.265442 -48.369297 170.986526 185 223 252
-85.265373 -48.372662 170.986389 178 178 183
-85.265434 -48.369507 170.986542 145 181 209
-85.265434 -48.369507 170.986542 145 181 209
-85.265434 -48.378227 170.986526 175 230 251
-85.265602 -48.376522 170.986877 125 134 143
-85.265869 -48.363789 170.987427 112 131 153
-85.265495 -48.374989 170.986694 126 134 141
-85.265137 -48.373047 170.985977 149 165 173
-85.265137 -48.373047 170.985977 149 165 173
-85.265076 -48.376171 170.985870 139 152 161
-85.265526 -48.369473 170.986786 204 243 255
-85.265373 -48.377888 170.986481 189 224 246
-85.265640 -48.370331 170.987030 130 153 179
-85.265282 -48.378273 170.986313 183 231 255
-85.265579 -48.376587 170.986908 169 182 191
-85.266006 -48.370262 170.987778 221 249 255
-85.265343 -48.370472 170.986465 197 211 224
-85.264587 -48.374817 170.984940 182 195 204
-85.265259 -48.370014 170.986313 132 154 178
-85.266357 -48.379776 170.988541 110 129 145
-85.264771 -48.374992 170.985367 75 95 107
-85.265358 -48.378132 170.986542 184 235 255
-85.265358 -48.378132 170.986542 184 235 255
-85.265427 -48.370205 170.986679 192 216 240
-85.265015 -48.370113 170.985870 119 128 144
-85.265305 -48.378395 170.986450 73 86 105
-85.266182 -48.365822 170.988220 147 175 200
-85.264961 -48.374664 170.985779 109 121 128
-85.264679 -48.369858 170.985245 104 113 133
-85.264969 -48.373314 170.985825 138 152 159
-85.264961 -48.374866 170.985825 111 113 118
-85.265175 -48.370384 170.986267 119 129 141
-85.265007 -48.369900 170.985962 216 231 246
-85.265472 -48.372242 170.986893 75 111 135
-85.265327 -48.373425 170.986603 103 109 116
-85.264984 -48.374699 170.985931 190 196 203
-85.264938 -48.372364 170.985840 49 65 73
-85.265503 -48.370697 170.987000 201 229 242
-85.264969 -48.370197 170.985947 100 106 114
-85.264969 -48.370197 170.985947 100 106 114
-85.265511 -48.370438 170.987030 190 205 218
-85.264664 -48.364712 170.985336 188 232 250
-85.265373 -48.373505 170.986771 145 161 169
-85.265747 -48.373436 170.987534 94 100 107
-85.265106 -48.368881 170.986237 210 248 255
-85.265495 -48.373638 170.987015 3 26 36
-85.265190 -48.369026 170.986404 130 152 176
-85.265961 -48.363811 170.987976 81 106 127
-85.265022 -48.369698 170.986130 142 168 192
-85.265022 -48.369698 170.986130 142 168 192
-85.265404 -48.370159 170.986893 141 167 184
-85.265068 -48.376503 170.986252 201 217 228
-85.265648 -48.373550 170.987427 105 111 118
-85.265038 -48.374596 170.986206 204 212 219
-85.264679 -48.374462 170.985504 101 108 118
-85.264572 -48.370419 170.985291 185 203 205
-85.265083 -48.378204 170.986343 177 230 252
-85.265083 -48.378204 170.986343 177 230 252
-85.265205 -48.370113 170.986588 193 208 227
-85.265488 -48.367554 170.987198 71 113 142
-85.265411 -48.369892 170.987061 212 243 255
-85.264687 -48.374435 170.985626 124 132 140
-85.265221 -48.372433 170.986725 10 34 41
-85.264465 -48.372379 170.985214 99 104 107
-85.265594 -48.377502 170.987503 76 104 115
-85.265022 -48.372585 170.986374 63 78 89
-85.265419 -48.368061 170.987198 146 161 172
-85.265137 -48.375061 170.986633 200 217 230
-85.265747 -48.371601 170.987885 16 17 18
-85.264931 -48.374546 170.986267 106 111 121
-85.264725 -48.376350 170.985855 169 177 185
-85.265327 -48.369637 170.987061 153 187 212
-85.265327 -48.369637 170.987061 153 187 212
-85.265335 -48.370277 170.987106 200 225 240
-85.265083 -48.378273 170.986603 60 82 98
-85.266502 -48.373711 170.989471 150 164 170
-85.266502 -48.373711 170.989471 150 164 170
-85.264908 -48.374371 170.986282 39 47 55
-85.264938 -48.370533 170.986359 93 105 117
-85.265083 -48.369766 170.986664 196 232 255
-85.264816 -48.369476 170.986160 203 242 255
-85.264488 -48.372822 170.985519 118 125 129
-85.265205 -48.372925 170.986969 110 120 126
-85.264816 -48.377125 170.986176 2 20 26
-85.264900 -48.374626 170.986359 96 99 108
-85.264709 -48.370514 170.985977 180 200 206
-85.264893 -48.373116 170.986359 207 219 226
-85.264839 -48.372597 170.986252 42 58 69
-85.265419 -48.378487 170.987411 195 227 241
-85.264793 -48.374435 170.986176 125 133 141
-85.265404 -48.368275 170.987411 136 146 164
-85.265358 -48.371815 170.987335 83 109 122
-85.265884 -48.375389 170.988388 196 202 209
-85.264923 -48.370396 170.986496 97 102 112
-85.264923 -48.370396 170.986496 97 102 112
-85.264610 -48.369499 170.985886 114 132 150
-85.265259 -48.372471 170.987198 32 49 62
-85.264847 -48.372868 170.986389 107 115 122
-85.264725 -48.374378 170.986145 126 138 144
-85.264648 -48.374378 170.986008 190 201 210
-85.265076 -48.369629 170.986877 105 127 151
-85.264961 -48.373207 170.986649 12 25 34
-85.264908 -48.376091 170.986542 209 246 255
-85.264633 -48.374275 170.986008 214 222 229
-85.264771 -48.370464 170.986298 104 106 111
-85.264793 -48.369339 170.986343 196 234 253
-85.265244 -48.374664 170.987259 104 115 124
-85.265015 -48.375999 170.986832 161 195 211
-85.264923 -48.369370 170.986649 195 237 255
-85.264626 -48.374355 170.986053 192 201 210
-85.265289 -48.369831 170.987381 194 219 234
-85.265007 -48.370319 170.986847 88 98 105
-85.265007 -48.370319 170.986847 88 98 105
-85.264542 -48.375778 170.985916 222 254 255
-85.264633 -48.369736 170.986099 191 219 236
-85.264931 -48.373180 170.986710 249 252 255
-85.264877 -48.374767 170.986603 184 193 202
-85.264954 -48.369255 170.986755 196 234 253
-85.265053 -48.370464 170.986969 188 198 204
-85.265053 -48.370464 170.986969 188 198 204
-85.265053 -48.370464 170.986969 188 198 204
-85.264725 -48.376011 170.986328 202 234 255
-85.264748 -48.375946 170.986359 221 252 255
-85.264915 -48.372307 170.986710 110 132 144
-85.264153 -48.374794 170.985184 120 122 127
-85.265259 -48.374535 170.987411 95 103 105
-85.265869 -48.372215 170.988617 94 116 130
-85.265472 -48.371662 170.987839 26 25 27
-85.265472 -48.371662 170.987839 26 25 27
-85.264496 -48.372650 170.985901 170 178 186
-85.264732 -48.370461 170.986374 162 167 170
-85.264458 -48.375908 170.985825 107 133 152
-85.264771 -48.370762 170.986450 162 182 187
-85.265541 -48.368465 170.988007 134 145 159
-85.264908 -48.369339 170.986740 103 134 159
-85.264908 -48.369339 170.986740 103 134 159
-85.265358 -48.371975 170.987656 69 92 106
-85.265121 -48.371250 170.987213 31 47 58
-85.264397 -48.375660 170.985733 220 252 255
-85.264847 -48.372707 170.986664 72 95 109
-85.264572 -48.374302 170.986115 187 196 205
-85.265503 -48.371536 170.987976 13 18 21
-85.265465 -48.371635 170.987915 20 19 21
-85.264481 -48.372620 170.985931 162 174 186
-85.264771 -48.372845 170.986526 160 170 176
-85.264557 -48.375881 170.986084 129 147 165
-85.264694 -48.370018 170.986374 103 113 119
-85.264900 -48.369404 170.986801 110 145 167
-85.265457 -48.371601 170.987900 75 76 77
-85.264946 -48.369766 170.986908 196 225 240
-85.264465 -48.375751 170.985947 128 149 169
-85.264656 -48.372227 170.986328 15 39 56
-85.265442 -48.373501 170.987930 137 148 157
-85.264938 -48.374180 170.986938 125 136 139
-85.265015 -48.378223 170.987076 195 241 255
-85.265015 -48.378223 170.987076 195 241 255
-85.264908 -48.376183 170.986877 222 243 255
-85.264908 -48.376183 170.986877 222 243 255
-85.264999 -48.369442 170.987091 188 213 228
-85.264374 -48.369766 170.985840 179 193 194
-85.264336 -48.369011 170.985764 124 151 172
-85.264458 -48.372486 170.986023 10 33 47
