ply
format ascii 1.0
element vertex 1205
property float x
property float y
property float z
property uchar red
property uchar green
property uchar blue
end_header
-0.683169 -0.387691 1.368081 195 196 197
-0.683168 -0.387691 1.368080 61 64 81
-0.683168 -0.387691 1.368080 61 64 81
-0.683163 -0.387643 1.368069 88 89 90
-0.683168 -0.387693 1.368081 191 192 195
-0.683165 -0.387671 1.368075 121 114 115
-0.683165 -0.387672 1.368075 44 42 48
-0.683168 -0.387697 1.368081 254 255 255
-0.683168 -0.387697 1.368081 254 255 255
-0.683168 -0.387701 1.368082 156 160 173
-0.683168 -0.387703 1.368082 152 153 162
-0.683169 -0.387712 1.368084 73 78 100
-0.683160 -0.387639 1.368065 194 191 195
-0.683166 -0.387695 1.368079 197 203 210
-0.683159 -0.387636 1.368064 47 57 86
-0.683159 -0.387636 1.368064 47 57 86
-0.683165 -0.387692 1.368078 59 64 74
-0.683165 -0.387692 1.368077 173 176 185
-0.683166 -0.387703 1.368080 140 139 153
-0.683156 -0.387622 1.368059 140 149 153
-0.683164 -0.387692 1.368077 60 62 73
-0.683166 -0.387711 1.368081 71 77 101
-0.683164 -0.387692 1.368077 203 206 209
-0.683165 -0.387701 1.368079 176 180 193
-0.683165 -0.387702 1.368079 138 140 151
-0.683160 -0.387664 1.368069 27 26 28
-0.683160 -0.387663 1.368069 80 77 81
-0.683160 -0.387663 1.368069 80 77 81
-0.683153 -0.387613 1.368056 70 72 91
-0.683163 -0.387692 1.368076 78 85 99
-0.683163 -0.387693 1.368076 165 171 179
-0.683165 -0.387711 1.368080 81 87 111
-0.683163 -0.387692 1.368076 60 69 85
-0.683163 -0.387692 1.368076 60 69 85
-0.683163 -0.387696 1.368077 190 199 208
-0.683162 -0.387689 1.368075 171 172 181
-0.683158 -0.387654 1.368066 155 164 168
-0.683154 -0.387626 1.368058 135 143 150
-0.683162 -0.387694 1.368075 191 197 205
-0.683161 -0.387689 1.368074 51 57 75
-0.683162 -0.387692 1.368075 65 70 90
-0.683162 -0.387696 1.368075 205 208 216
-0.683161 -0.387690 1.368074 60 67 89
-0.683162 -0.387697 1.368075 204 214 220
-0.683162 -0.387695 1.368075 250 255 255
-0.683163 -0.387711 1.368078 73 80 100
-0.683156 -0.387654 1.368065 57 64 68
-0.683161 -0.387691 1.368073 64 64 75
-0.683150 -0.387608 1.368052 52 59 93
-0.683160 -0.387689 1.368073 106 111 128
-0.683161 -0.387695 1.368075 202 204 209
-0.683160 -0.387690 1.368073 52 52 68
-0.683162 -0.387703 1.368076 150 151 160
-0.683160 -0.387692 1.368073 199 201 206
-0.683160 -0.387695 1.368073 200 202 207
-0.683160 -0.387692 1.368073 220 223 232
-0.683160 -0.387692 1.368073 75 77 88
-0.683159 -0.387690 1.368072 170 171 179
-0.683148 -0.387612 1.368051 36 39 40
-0.683151 -0.387638 1.368058 171 172 180
-0.683151 -0.387636 1.368057 99 106 116
-0.683158 -0.387690 1.368071 185 189 194
-0.683159 -0.387702 1.368073 217 220 229
-0.683159 -0.387702 1.368073 217 220 229
-0.683158 -0.387696 1.368071 200 207 217
-0.683158 -0.387700 1.368072 168 171 186
-0.683157 -0.387688 1.368070 197 200 203
-0.683158 -0.387695 1.368071 190 196 209
-0.683159 -0.387710 1.368075 73 78 100
-0.683158 -0.387702 1.368072 221 224 233
-0.683157 -0.387696 1.368070 249 254 255
-0.683157 -0.387696 1.368070 249 254 255
-0.683152 -0.387661 1.368061 141 138 136
-0.683150 -0.387646 1.368058 94 104 110
-0.683154 -0.387689 1.368067 49 52 69
-0.683154 -0.387691 1.368068 93 93 104
-0.683147 -0.387633 1.368053 136 143 147
-0.683150 -0.387654 1.368058 94 93 95
-0.683156 -0.387710 1.368072 81 85 104
-0.683154 -0.387690 1.368067 64 67 76
-0.683147 -0.387637 1.368053 84 91 113
-0.683153 -0.387688 1.368066 192 189 191
-0.683153 -0.387688 1.368066 192 189 191
-0.683156 -0.387710 1.368071 125 129 148
-0.683149 -0.387658 1.368058 123 131 149
-0.683155 -0.387710 1.368071 60 63 86
-0.683153 -0.387690 1.368066 199 202 211
-0.683153 -0.387690 1.368066 199 202 211
-0.683149 -0.387657 1.368058 35 41 59
-0.683148 -0.387651 1.368056 39 38 40
-0.683153 -0.387696 1.368067 191 198 208
-0.683153 -0.387696 1.368067 191 198 208
-0.683152 -0.387688 1.368065 63 62 76
-0.683143 -0.387614 1.368046 134 144 150
-0.683154 -0.387702 1.368068 207 209 220
-0.683151 -0.387688 1.368064 185 188 197
-0.683154 -0.387709 1.368070 125 130 150
-0.683148 -0.387664 1.368058 212 208 208
-0.683152 -0.387693 1.368065 190 195 205
-0.683146 -0.387650 1.368055 96 99 100
-0.683150 -0.387682 1.368062 171 178 194
-0.683148 -0.387664 1.368058 212 208 208
-0.683142 -0.387620 1.368046 133 141 143
-0.683150 -0.387690 1.368063 190 193 201
-0.683150 -0.387690 1.368063 190 193 201
-0.683150 -0.387692 1.368064 194 200 207
-0.683149 -0.387687 1.368062 48 57 77
-0.683149 -0.387691 1.368063 122 128 136
-0.683149 -0.387691 1.368063 104 106 117
-0.683149 -0.387693 1.368063 197 200 203
-0.683149 -0.387693 1.368063 197 200 203
-0.683149 -0.387693 1.368063 197 200 203
-0.683149 -0.387693 1.368063 197 200 203
-0.683149 -0.387691 1.368063 115 121 128
-0.683140 -0.387624 1.368046 35 39 44
-0.683148 -0.387681 1.368060 193 200 216
-0.683142 -0.387636 1.368048 69 79 108
-0.683141 -0.387633 1.368047 20 22 27
-0.683141 -0.387633 1.368047 20 22 27
-0.683148 -0.387688 1.368061 63 61 77
-0.683148 -0.387688 1.368061 63 61 77
-0.683144 -0.387656 1.368053 251 252 253
-0.683148 -0.387689 1.368061 200 199 203
-0.683148 -0.387690 1.368061 200 204 209
-0.683142 -0.387649 1.368051 87 86 95
-0.683146 -0.387689 1.368060 58 65 81
-0.683142 -0.387653 1.368051 243 249 255
-0.683148 -0.387708 1.368064 81 86 108
-0.683148 -0.387713 1.368065 220 220 220
-0.683135 -0.387609 1.368038 132 140 147
-0.683139 -0.387643 1.368047 89 89 105
-0.683138 -0.387642 1.368046 95 98 119
-0.683138 -0.387643 1.368046 49 52 67
-0.683144 -0.387700 1.368059 200 205 215
-0.683138 -0.387646 1.368046 210 224 237
-0.683138 -0.387655 1.368048 35 45 79
-0.683138 -0.387655 1.368048 35 45 79
-0.683145 -0.387713 1.368062 224 219 223
-0.683134 -0.387629 1.368041 125 134 138
-0.683141 -0.387680 1.368054 165 174 196
-0.683143 -0.387700 1.368058 206 209 224
-0.683137 -0.387650 1.368046 211 216 219
-0.683136 -0.387646 1.368045 101 107 120
-0.683135 -0.387638 1.368043 115 119 124
-0.683135 -0.387636 1.368043 250 254 253
-0.683141 -0.387690 1.368055 204 207 215
-0.683141 -0.387694 1.368056 208 213 223
-0.683141 -0.387694 1.368056 208 213 223
-0.683139 -0.387680 1.368052 56 63 83
-0.683141 -0.387700 1.368056 208 210 221
-0.683141 -0.387700 1.368056 208 210 221
-0.683140 -0.387691 1.368054 196 201 211
-0.683134 -0.387645 1.368042 205 208 209
-0.683134 -0.387642 1.368042 31 41 67
-0.683139 -0.387687 1.368053 52 55 72
-0.683134 -0.387648 1.368043 34 42 74
-0.683139 -0.387689 1.368053 191 194 203
-0.683140 -0.387699 1.368055 139 144 154
-0.683134 -0.387652 1.368043 235 230 226
-0.683128 -0.387606 1.368032 134 144 150
-0.683138 -0.387687 1.368052 193 188 190
-0.683138 -0.387686 1.368051 186 183 187
-0.683138 -0.387686 1.368051 186 183 187
-0.683133 -0.387657 1.368043 228 227 229
-0.683140 -0.387713 1.368057 87 92 95
-0.683140 -0.387712 1.368057 214 215 218
-0.683131 -0.387638 1.368039 174 173 175
-0.683137 -0.387687 1.368051 201 201 206
-0.683126 -0.387604 1.368030 30 33 36
-0.683137 -0.387693 1.368052 210 217 231
-0.683139 -0.387708 1.368056 43 48 75
-0.683136 -0.387680 1.368049 60 69 83
-0.683133 -0.387656 1.368043 110 113 128
-0.683131 -0.387644 1.368040 37 46 74
-0.683132 -0.387653 1.368042 236 238 237
-0.683136 -0.387688 1.368050 197 198 207
-0.683136 -0.387688 1.368050 197 198 207
-0.683136 -0.387686 1.368050 76 76 81
-0.683131 -0.387648 1.368040 221 221 221
-0.683136 -0.387687 1.368050 197 198 201
-0.683130 -0.387638 1.368037 28 35 62
-0.683130 -0.387649 1.368039 51 55 79
-0.683135 -0.387688 1.368049 59 62 77
-0.683128 -0.387630 1.368034 118 121 122
-0.683130 -0.387645 1.368039 222 219 217
-0.683134 -0.387685 1.368048 179 178 186
-0.683134 -0.387685 1.368048 41 46 66
-0.683134 -0.387692 1.368049 203 204 218
-0.683134 -0.387689 1.368048 177 179 190
-0.683133 -0.387687 1.368048 56 62 86
-0.683133 -0.387687 1.368048 56 62 86
-0.683121 -0.387594 1.368024 97 104 118
-0.683132 -0.387687 1.368047 55 53 69
-0.683127 -0.387643 1.368036 224 221 219
-0.683126 -0.387637 1.368034 199 200 198
-0.683126 -0.387637 1.368034 199 200 198
-0.683132 -0.387686 1.368046 54 54 70
-0.683124 -0.387622 1.368030 29 33 32
-0.683132 -0.387688 1.368046 210 209 211
-0.683132 -0.387688 1.368046 210 209 211
-0.683134 -0.387711 1.368052 80 77 86
-0.683125 -0.387641 1.368034 28 37 65
-0.683126 -0.387650 1.368036 132 133 147
-0.683126 -0.387650 1.368036 132 133 147
-0.683131 -0.387691 1.368046 208 209 217
-0.683131 -0.387691 1.368046 210 215 225
-0.683129 -0.387679 1.368042 175 185 203
-0.683129 -0.387679 1.368042 175 185 203
-0.683131 -0.387692 1.368046 252 254 255
-0.683122 -0.387623 1.368028 128 131 134
-0.683130 -0.387692 1.368045 201 204 213
-0.683130 -0.387692 1.368045 201 204 213
-0.683133 -0.387710 1.368050 59 55 77
-0.683131 -0.387698 1.368047 134 137 152
-0.683130 -0.387690 1.368045 197 203 211
-0.683131 -0.387697 1.368047 179 179 195
-0.683130 -0.387685 1.368044 52 64 83
-0.683132 -0.387711 1.368050 210 203 204
-0.683129 -0.387686 1.368044 54 61 83
-0.683130 -0.387698 1.368046 132 135 150
-0.683129 -0.387688 1.368044 78 79 93
-0.683128 -0.387678 1.368041 146 156 174
-0.683122 -0.387635 1.368030 26 33 55
-0.683124 -0.387654 1.368035 92 102 130
-0.683128 -0.387686 1.368043 64 61 75
-0.683131 -0.387707 1.368048 97 104 131
-0.683123 -0.387649 1.368033 243 244 247
-0.683128 -0.387688 1.368043 90 94 99
-0.683131 -0.387710 1.368048 239 234 236
-0.683128 -0.387688 1.368043 133 139 147
-0.683123 -0.387643 1.368032 49 60 83
-0.683123 -0.387643 1.368032 49 60 83
-0.683128 -0.387687 1.368042 216 217 220
-0.683120 -0.387630 1.368027 81 81 99
-0.683126 -0.387678 1.368040 149 156 176
-0.683130 -0.387711 1.368048 82 85 86
-0.683120 -0.387630 1.368027 82 82 100
-0.683123 -0.387654 1.368034 45 54 83
-0.683127 -0.387684 1.368041 55 58 73
-0.683127 -0.387686 1.368042 200 197 199
-0.683121 -0.387643 1.368031 249 253 255
-0.683128 -0.387697 1.368044 122 125 140
-0.683126 -0.387686 1.368041 207 205 205
-0.683126 -0.387686 1.368041 207 205 205
-0.683125 -0.387678 1.368039 188 196 214
-0.683127 -0.387698 1.368043 131 131 147
-0.683126 -0.387686 1.368040 202 201 203
-0.683129 -0.387710 1.368046 216 210 209
-0.683126 -0.387687 1.368040 207 213 226
-0.683120 -0.387642 1.368029 75 84 104
-0.683120 -0.387642 1.368029 75 84 104
-0.683125 -0.387684 1.368039 207 205 211
-0.683126 -0.387691 1.368041 200 205 215
-0.683126 -0.387691 1.368041 200 205 215
-0.683126 -0.387692 1.368041 206 211 221
-0.683126 -0.387692 1.368041 206 211 221
-0.683116 -0.387616 1.368021 130 139 143
-0.683123 -0.387678 1.368037 174 180 198
-0.683123 -0.387678 1.368037 174 180 198
-0.683126 -0.387697 1.368042 120 121 135
-0.683127 -0.387710 1.368045 88 80 85
-0.683125 -0.387691 1.368040 251 255 254
-0.683124 -0.387691 1.368040 201 209 217
-0.683124 -0.387691 1.368040 201 209 217
-0.683124 -0.387684 1.368038 55 62 82
-0.683119 -0.387646 1.368029 37 48 74
-0.683123 -0.387685 1.368038 58 66 84
-0.683123 -0.387687 1.368038 85 86 94
-0.683112 -0.387594 1.368015 210 229 245
-0.683123 -0.387691 1.368039 201 204 213
-0.683123 -0.387691 1.368039 201 204 213
-0.683123 -0.387686 1.368038 215 214 218
-0.683123 -0.387685 1.368037 94 97 118
-0.683125 -0.387710 1.368043 211 203 206
-0.683122 -0.387685 1.368037 64 63 77
-0.683122 -0.387687 1.368037 132 135 144
-0.683116 -0.387638 1.368024 65 73 97
-0.683120 -0.387677 1.368034 41 48 68
-0.683121 -0.387684 1.368036 196 190 189
-0.683121 -0.387684 1.368036 196 190 189
-0.683121 -0.387691 1.368037 211 215 228
-0.683120 -0.387686 1.368035 206 212 220
-0.683123 -0.387710 1.368041 74 74 85
-0.683121 -0.387690 1.368036 199 202 211
-0.683121 -0.387690 1.368036 199 202 211
-0.683120 -0.387687 1.368035 147 148 156
-0.683120 -0.387689 1.368036 195 200 210
-0.683120 -0.387689 1.368036 195 200 210
-0.683122 -0.387705 1.368039 164 170 194
-0.683122 -0.387705 1.368039 164 170 194
-0.683119 -0.387683 1.368034 199 202 210
-0.683122 -0.387709 1.368040 70 67 76
-0.683115 -0.387645 1.368025 225 218 217
-0.683122 -0.387709 1.368040 70 67 76
-0.683122 -0.387705 1.368039 62 68 92
-0.683114 -0.387643 1.368024 232 233 236
-0.683119 -0.387691 1.368035 216 218 223
-0.683113 -0.387644 1.368023 105 105 116
-0.683118 -0.387685 1.368033 57 62 84
-0.683118 -0.387685 1.368033 57 62 84
-0.683113 -0.387641 1.368022 234 242 249
-0.683110 -0.387626 1.368018 79 84 101
-0.683110 -0.387626 1.368018 79 84 101
-0.683118 -0.387686 1.368033 203 203 208
-0.683118 -0.387690 1.368034 214 216 221
-0.683120 -0.387705 1.368037 129 135 159
-0.683119 -0.387696 1.368035 224 223 231
-0.683111 -0.387637 1.368020 104 109 129
-0.683120 -0.387709 1.368038 87 91 104
-0.683118 -0.387696 1.368035 222 223 232
-0.683116 -0.387683 1.368031 192 189 193
-0.683116 -0.387683 1.368031 192 189 193
-0.683116 -0.387685 1.368032 56 51 60
-0.683116 -0.387685 1.368032 56 51 60
-0.683106 -0.387603 1.368011 157 173 181
-0.683106 -0.387603 1.368011 157 173 181
-0.683118 -0.387696 1.368034 140 141 155
-0.683108 -0.387622 1.368015 178 197 213
-0.683112 -0.387650 1.368023 210 214 219
-0.683111 -0.387641 1.368021 62 70 94
-0.683111 -0.387641 1.368021 62 70 94
-0.683117 -0.387696 1.368034 150 152 163
-0.683116 -0.387683 1.368031 64 64 75
-0.683116 -0.387683 1.368031 64 64 75
-0.683118 -0.387704 1.368036 140 147 169
-0.683117 -0.387696 1.368034 212 213 227
-0.683117 -0.387696 1.368034 129 132 147
-0.683116 -0.387685 1.368031 212 215 223
-0.683117 -0.387695 1.368033 120 122 133
-0.683117 -0.387697 1.368034 134 134 152
-0.683107 -0.387623 1.368014 127 130 138
-0.683110 -0.387651 1.368021 136 138 149
-0.683114 -0.387684 1.368029 35 48 69
-0.683114 -0.387686 1.368029 143 147 160
-0.683115 -0.387696 1.368032 190 191 205
-0.683113 -0.387683 1.368029 35 46 72
-0.683116 -0.387704 1.368034 100 103 130
-0.683114 -0.387686 1.368029 135 136 144
-0.683108 -0.387641 1.368018 95 108 129
-0.683100 -0.387579 1.368003 109 107 107
-0.683100 -0.387579 1.368003 109 107 107
-0.683109 -0.387653 1.368021 190 192 203
-0.683096 -0.387541 1.367994 78 79 80
-0.683096 -0.387541 1.367994 78 79 80
-0.683099 -0.387573 1.368001 69 70 73
-0.683108 -0.387650 1.368019 235 238 239
-0.683113 -0.387684 1.368028 44 53 73
-0.683096 -0.387545 1.367994 75 74 76
-0.683101 -0.387595 1.368005 219 219 224
-0.683112 -0.387685 1.368028 68 74 92
-0.683112 -0.387685 1.368027 116 125 145
-0.683113 -0.387696 1.368030 118 119 133
-0.683102 -0.387611 1.368009 112 117 118
-0.683107 -0.387653 1.368019 182 185 194
-0.683111 -0.387686 1.368027 196 199 207
-0.683106 -0.387642 1.368016 115 122 138
-0.683094 -0.387543 1.367992 19 22 30
-0.683107 -0.387650 1.368018 240 241 244
-0.683112 -0.387696 1.368029 118 118 134
-0.683098 -0.387577 1.368000 21 23 34
-0.683112 -0.387695 1.368029 140 142 153
-0.683111 -0.387686 1.368026 192 198 206
-0.683107 -0.387654 1.368018 177 181 194
-0.683110 -0.387685 1.368026 193 198 208
-0.683110 -0.387685 1.368026 193 198 208
-0.683112 -0.387704 1.368030 94 102 126
-0.683112 -0.387704 1.368030 94 102 126
-0.683109 -0.387685 1.368025 64 70 88
-0.683111 -0.387695 1.368027 211 214 223
-0.683096 -0.387582 1.367999 106 106 106
-0.683104 -0.387641 1.368014 79 82 97
-0.683103 -0.387633 1.368012 43 43 61
-0.683110 -0.387695 1.368027 195 200 215
-0.683105 -0.387653 1.368016 181 188 198
-0.683099 -0.387610 1.368006 113 118 121
-0.683109 -0.387689 1.368025 204 205 213
-0.683109 -0.387689 1.368025 204 205 213
-0.683111 -0.387704 1.368029 130 135 162
-0.683104 -0.387654 1.368016 142 140 156
-0.683092 -0.387551 1.367991 76 73 75
-0.683102 -0.387635 1.368011 49 51 76
-0.683091 -0.387545 1.367990 76 75 77
-0.683109 -0.387695 1.368026 135 140 150
-0.683108 -0.387687 1.368024 204 205 219
-0.683108 -0.387687 1.368024 204 205 219
-0.683108 -0.387684 1.368023 51 50 64
-0.683091 -0.387548 1.367990 75 75 75
-0.683095 -0.387580 1.367997 89 86 90
-0.683107 -0.387684 1.368023 207 205 216
-0.683101 -0.387639 1.368012 34 41 68
-0.683108 -0.387694 1.368025 184 189 199
-0.683108 -0.387694 1.368025 89 93 106
-0.683094 -0.387581 1.367997 66 64 70
-0.683104 -0.387662 1.368017 64 69 91
-0.683104 -0.387662 1.368017 64 69 91
-0.683094 -0.387577 1.367996 37 39 44
-0.683099 -0.387619 1.368006 38 48 76
-0.683103 -0.387653 1.368014 176 177 191
-0.683091 -0.387555 1.367991 60 58 58
-0.683107 -0.387694 1.368024 128 130 141
-0.683089 -0.387542 1.367988 41 40 44
-0.683101 -0.387642 1.368011 99 105 123
-0.683101 -0.387642 1.368011 99 105 123
-0.683089 -0.387544 1.367988 32 36 41
-0.683089 -0.387544 1.367988 32 36 41
-0.683106 -0.387681 1.368021 195 193 199
-0.683106 -0.387681 1.368021 195 193 199
-0.683107 -0.387693 1.368024 182 184 195
-0.683096 -0.387609 1.368002 133 141 143
-0.683098 -0.387623 1.368006 59 61 90
-0.683101 -0.387651 1.368013 117 122 137
-0.683107 -0.387696 1.368024 132 131 145
-0.683106 -0.387693 1.368023 146 148 159
-0.683099 -0.387635 1.368009 41 47 71
-0.683092 -0.387579 1.367995 114 114 114
-0.683105 -0.387684 1.368021 71 74 91
-0.683105 -0.387684 1.368021 71 74 91
-0.683095 -0.387600 1.368000 128 128 144
-0.683101 -0.387654 1.368013 140 139 153
-0.683106 -0.387695 1.368023 182 182 198
-0.683106 -0.387695 1.368023 182 182 198
-0.683106 -0.387693 1.368023 105 108 117
-0.683088 -0.387539 1.367986 17 19 18
-0.683106 -0.387693 1.368023 206 212 220
-0.683102 -0.387662 1.368015 226 216 217
-0.683102 -0.387662 1.368015 226 216 217
-0.683105 -0.387683 1.368021 196 197 205
-0.683105 -0.387688 1.368022 210 212 223
-0.683091 -0.387568 1.367992 75 78 79
-0.683105 -0.387685 1.368021 105 108 116
-0.683089 -0.387557 1.367989 79 77 77
-0.683088 -0.387545 1.367987 83 83 83
-0.683104 -0.387682 1.368020 47 56 78
-0.683104 -0.387682 1.368020 47 56 78
-0.683087 -0.387541 1.367986 84 86 85
-0.683089 -0.387554 1.367989 84 81 83
-0.683106 -0.387694 1.368023 214 215 223
-0.683088 -0.387552 1.367988 73 74 75
-0.683106 -0.387696 1.368023 192 192 203
-0.683106 -0.387694 1.368023 129 131 142
-0.683105 -0.387689 1.368021 201 209 216
-0.683102 -0.387662 1.368015 223 220 222
-0.683087 -0.387543 1.367986 77 79 78
-0.683093 -0.387594 1.367998 214 230 238
-0.683105 -0.387695 1.368023 120 120 136
-0.683105 -0.387695 1.368023 127 127 143
-0.683104 -0.387685 1.368020 88 93 103
-0.683097 -0.387632 1.368007 40 46 64
-0.683104 -0.387685 1.368020 185 187 198
-0.683104 -0.387688 1.368021 252 255 255
-0.683102 -0.387674 1.368017 137 143 161
-0.683103 -0.387684 1.368019 70 79 95
-0.683104 -0.387693 1.368021 193 195 206
-0.683103 -0.387685 1.368019 118 123 133
-0.683103 -0.387687 1.368020 250 255 255
-0.683103 -0.387687 1.368020 250 255 255
-0.683102 -0.387681 1.368018 190 189 198
-0.683103 -0.387688 1.368020 214 213 222
-0.683103 -0.387688 1.368020 214 213 222
-0.683092 -0.387605 1.367999 120 123 126
-0.683092 -0.387605 1.367999 120 123 126
-0.683102 -0.387681 1.368018 39 51 70
-0.683096 -0.387633 1.368006 195 194 192
-0.683102 -0.387686 1.368018 222 224 229
-0.683102 -0.387687 1.368019 201 204 213
-0.683103 -0.387695 1.368020 178 177 191
-0.683101 -0.387684 1.368017 66 64 80
-0.683102 -0.387693 1.368019 197 199 210
-0.683101 -0.387684 1.368017 99 99 110
-0.683096 -0.387642 1.368007 102 109 125
-0.683096 -0.387642 1.368007 102 109 125
-0.683102 -0.387692 1.368019 97 100 109
-0.683094 -0.387631 1.368004 179 177 177
-0.683097 -0.387653 1.368009 144 145 159
-0.683089 -0.387591 1.367993 18 30 51
-0.683096 -0.387650 1.368008 149 150 159
-0.683101 -0.387692 1.368019 203 206 215
-0.683100 -0.387682 1.368016 49 46 66
-0.683084 -0.387550 1.367984 19 25 32
-0.683084 -0.387550 1.367984 19 25 32
-0.683086 -0.387570 1.367988 19 25 33
-0.683101 -0.387693 1.368018 132 133 147
-0.683101 -0.387694 1.368018 186 189 204
-0.683100 -0.387693 1.368018 215 218 227
-0.683095 -0.387653 1.368008 143 146 154
-0.683087 -0.387586 1.367991 53 54 55
-0.683100 -0.387688 1.368016 211 212 220
-0.683100 -0.387694 1.368018 116 120 133
-0.683100 -0.387692 1.368017 91 95 100
-0.683098 -0.387681 1.368014 201 195 201
-0.683098 -0.387680 1.368014 66 65 85
-0.683093 -0.387634 1.368003 46 48 67
-0.683091 -0.387624 1.368000 20 27 43
-0.683099 -0.387687 1.368016 209 212 221
-0.683088 -0.387603 1.367995 67 71 90
-0.683098 -0.387682 1.368014 47 59 78
-0.683100 -0.387700 1.368018 167 172 192
-0.683081 -0.387543 1.367980 23 26 34
-0.683099 -0.387692 1.368016 128 130 141
-0.683097 -0.387682 1.368014 71 77 101
-0.683086 -0.387595 1.367991 87 92 114
-0.683085 -0.387586 1.367989 89 89 89
-0.683085 -0.387586 1.367989 89 89 89
-0.683090 -0.387633 1.368001 194 192 192
-0.683083 -0.387572 1.367985 88 86 86
-0.683090 -0.387631 1.368000 181 181 181
-0.683080 -0.387551 1.367981 96 94 94
-0.683096 -0.387682 1.368012 56 53 67
-0.683096 -0.387682 1.368012 56 53 67
-0.683096 -0.387681 1.368012 60 57 66
-0.683082 -0.387567 1.367984 91 92 90
-0.683096 -0.387682 1.368012 200 197 201
-0.683080 -0.387547 1.367979 92 92 87
-0.683093 -0.387661 1.368008 215 213 213
-0.683090 -0.387641 1.368001 94 100 118
-0.683090 -0.387641 1.368001 94 100 118
-0.683095 -0.387681 1.368011 196 195 197
-0.683095 -0.387683 1.368012 103 105 116
-0.683094 -0.387681 1.368010 53 58 68
-0.683085 -0.387609 1.367992 218 218 218
-0.683082 -0.387584 1.367986 21 21 37
-0.683094 -0.387681 1.368010 203 206 209
-0.683093 -0.387679 1.368009 59 62 79
-0.683094 -0.387682 1.368010 206 214 222
-0.683081 -0.387581 1.367985 97 97 97
-0.683082 -0.387596 1.367988 86 89 110
-0.683076 -0.387543 1.367976 89 88 90
-0.683093 -0.387681 1.368009 186 191 201
-0.683087 -0.387632 1.367997 196 192 192
-0.683093 -0.387684 1.368010 112 117 127
-0.683092 -0.387681 1.368009 66 78 97
-0.683092 -0.387679 1.368008 105 109 133
-0.683092 -0.387679 1.368008 105 109 133
-0.683079 -0.387574 1.367982 86 85 83
-0.683093 -0.387695 1.368011 63 72 100
-0.683078 -0.387568 1.367980 87 89 88
-0.683091 -0.387681 1.368008 56 62 86
-0.683091 -0.387679 1.368007 106 110 134
-0.683091 -0.387679 1.368007 106 110 134
-0.683091 -0.387682 1.368008 210 209 218
-0.683091 -0.387682 1.368008 210 209 218
-0.683080 -0.387597 1.367986 197 201 206
-0.683092 -0.387694 1.368011 67 79 102
-0.683075 -0.387549 1.367975 95 92 94
-0.683092 -0.387695 1.368010 170 179 208
-0.683078 -0.387582 1.367982 86 88 87
-0.683092 -0.387702 1.368011 104 102 124
-0.683091 -0.387692 1.368009 250 255 255
-0.683090 -0.387681 1.368006 58 55 64
-0.683090 -0.387681 1.368006 58 55 64
-0.683089 -0.387679 1.368006 194 193 195
-0.683083 -0.387632 1.367993 191 187 187
-0.683089 -0.387682 1.368006 71 80 102
-0.683089 -0.387684 1.368006 99 100 109
-0.683089 -0.387688 1.368007 118 132 149
-0.683089 -0.387688 1.368007 118 132 149
-0.683089 -0.387687 1.368007 127 142 155
-0.683088 -0.387680 1.368005 30 36 54
-0.683089 -0.387689 1.368007 112 127 142
-0.683082 -0.387633 1.367993 41 47 71
-0.683089 -0.387688 1.368006 156 171 190
-0.683082 -0.387630 1.367992 187 184 182
-0.683088 -0.387684 1.368005 75 78 93
-0.683088 -0.387682 1.368005 106 112 136
-0.683089 -0.387692 1.368007 64 85 117
-0.683089 -0.387693 1.368007 89 104 137
-0.683088 -0.387688 1.368006 113 119 143
-0.683088 -0.387688 1.368006 76 87 110
-0.683088 -0.387687 1.368006 83 95 116
-0.683087 -0.387679 1.368004 39 47 71
-0.683088 -0.387685 1.368005 68 83 104
-0.683088 -0.387686 1.368005 59 68 84
-0.683082 -0.387636 1.367993 44 53 81
-0.683088 -0.387687 1.368005 140 151 177
-0.683081 -0.387631 1.367991 38 41 62
-0.683080 -0.387628 1.367990 34 41 61
-0.683087 -0.387689 1.368005 63 75 103
-0.683087 -0.387684 1.368004 63 66 83
-0.683087 -0.387687 1.368005 47 56 84
-0.683086 -0.387682 1.368003 51 54 75
-0.683087 -0.387686 1.368004 209 216 220
-0.683087 -0.387686 1.368004 209 216 220
-0.683086 -0.387679 1.368002 44 46 71
-0.683080 -0.387633 1.367991 37 43 67
-0.683086 -0.387683 1.368003 57 57 87
-0.683080 -0.387632 1.367990 195 193 193
-0.683086 -0.387686 1.368003 46 57 80
-0.683086 -0.387685 1.368003 60 62 91
-0.683086 -0.387685 1.368003 60 62 91
-0.683085 -0.387683 1.368003 86 86 102
-0.683085 -0.387685 1.368003 42 51 79
-0.683084 -0.387679 1.368001 202 195 196
-0.683084 -0.387679 1.368001 202 195 196
-0.683085 -0.387681 1.368002 26 26 37
-0.683082 -0.387659 1.367996 215 218 215
-0.683087 -0.387701 1.368006 102 103 131
-0.683087 -0.387700 1.368006 161 163 192
-0.683087 -0.387700 1.368006 161 163 192
-0.683087 -0.387700 1.368006 32 34 63
-0.683084 -0.387682 1.368001 35 39 68
-0.683084 -0.387679 1.368001 49 44 59
-0.683084 -0.387679 1.368001 49 44 59
-0.683086 -0.387699 1.368005 35 39 69
-0.683080 -0.387651 1.367994 132 135 150
-0.683084 -0.387681 1.368001 201 206 221
-0.683073 -0.387596 1.367980 31 32 40
-0.683084 -0.387680 1.368001 205 202 206
-0.683082 -0.387671 1.367998 30 37 59
-0.683086 -0.387701 1.368005 88 94 118
-0.683083 -0.387681 1.368000 29 38 67
-0.683082 -0.387679 1.367999 190 197 207
-0.683083 -0.387687 1.368001 22 35 68
-0.683083 -0.387687 1.368001 22 35 68
-0.683080 -0.387659 1.367994 58 56 87
-0.683080 -0.387659 1.367994 58 56 87
-0.683084 -0.387697 1.368003 84 82 98
-0.683082 -0.387678 1.367999 47 54 68
-0.683084 -0.387696 1.368003 166 153 171
-0.683079 -0.387657 1.367993 219 214 216
-0.683082 -0.387679 1.367999 26 42 67
-0.683076 -0.387630 1.367987 43 48 70
-0.683083 -0.387694 1.368002 53 57 87
-0.683084 -0.387699 1.368003 103 109 138
-0.683070 -0.387587 1.367976 130 135 136
-0.683083 -0.387691 1.368001 74 67 82
-0.683069 -0.387581 1.367974 52 57 58
-0.683082 -0.387690 1.368000 101 94 109
-0.683082 -0.387690 1.368000 103 96 105
-0.683069 -0.387582 1.367974 118 121 122
-0.683082 -0.387697 1.368002 80 90 116
-0.683080 -0.387673 1.367996 85 90 117
-0.683075 -0.387632 1.367986 41 46 73
-0.683070 -0.387592 1.367977 105 107 106
-0.683069 -0.387586 1.367975 122 125 126
-0.683082 -0.387695 1.368001 253 248 252
-0.683082 -0.387695 1.368001 253 248 252
-0.683069 -0.387585 1.367975 120 125 126
-0.683070 -0.387592 1.367976 24 26 25
-0.683081 -0.387689 1.367999 149 144 159
-0.683074 -0.387631 1.367985 195 192 194
-0.683067 -0.387575 1.367972 123 128 129
-0.683067 -0.387575 1.367972 123 128 129
-0.683080 -0.387688 1.367999 62 57 77
-0.683069 -0.387594 1.367976 101 103 102
-0.683080 -0.387689 1.367999 76 71 80
-0.683068 -0.387588 1.367974 100 103 104
-0.683068 -0.387589 1.367974 95 94 96
-0.683067 -0.387586 1.367973 96 99 100
-0.683068 -0.387590 1.367974 26 31 32
-0.683067 -0.387586 1.367973 97 105 105
-0.683067 -0.387584 1.367972 107 110 111
-0.683066 -0.387581 1.367972 141 144 145
-0.683077 -0.387671 1.367993 57 70 96
-0.683078 -0.387684 1.367996 226 225 229
-0.683072 -0.387632 1.367983 37 45 69
-0.683079 -0.387693 1.367998 253 248 252
-0.683066 -0.387586 1.367972 103 108 109
-0.683078 -0.387690 1.367997 109 111 130
-0.683078 -0.387690 1.367997 112 110 126
-0.683078 -0.387690 1.367997 112 110 126
-0.683065 -0.387581 1.367971 115 118 119
-0.683077 -0.387685 1.367995 78 73 82
-0.683077 -0.387684 1.367995 36 47 63
-0.683071 -0.387629 1.367982 39 44 64
-0.683078 -0.387693 1.367997 250 252 255
-0.683077 -0.387682 1.367994 228 221 222
-0.683065 -0.387584 1.367971 95 98 99
-0.683076 -0.387680 1.367994 215 209 215
-0.683078 -0.387693 1.367997 135 142 162
-0.683065 -0.387587 1.367971 115 116 117
-0.683065 -0.387587 1.367971 115 116 117
-0.683077 -0.387689 1.367996 109 122 139
-0.683077 -0.387689 1.367996 204 209 224
-0.683064 -0.387582 1.367970 129 134 135
-0.683064 -0.387582 1.367970 129 134 135
-0.683076 -0.387682 1.367994 46 64 82
-0.683077 -0.387692 1.367996 246 253 255
-0.683064 -0.387582 1.367970 54 57 58
-0.683064 -0.387586 1.367970 93 96 97
-0.683063 -0.387578 1.367968 110 114 113
-0.683064 -0.387583 1.367970 47 48 49
-0.683076 -0.387687 1.367995 99 109 127
-0.683075 -0.387677 1.367992 206 197 204
-0.683072 -0.387656 1.367987 183 180 182
-0.683064 -0.387590 1.367971 29 32 33
-0.683069 -0.387630 1.367980 198 195 193
-0.683069 -0.387630 1.367980 198 195 193
-0.683076 -0.387690 1.367995 246 252 255
-0.683074 -0.387679 1.367992 32 36 60
-0.683074 -0.387678 1.367992 205 206 207
-0.683061 -0.387567 1.367965 59 64 67
-0.683063 -0.387585 1.367969 121 124 125
-0.683069 -0.387636 1.367981 37 46 75
-0.683063 -0.387586 1.367969 41 43 42
-0.683074 -0.387680 1.367992 44 52 76
-0.683064 -0.387589 1.367970 71 76 77
-0.683075 -0.387682 1.367992 255 254 255
-0.683063 -0.387585 1.367969 43 44 45
-0.683075 -0.387689 1.367994 250 253 255
-0.683074 -0.387677 1.367991 30 32 51
-0.683074 -0.387682 1.367992 208 206 206
-0.683062 -0.387582 1.367968 99 104 105
-0.683069 -0.387643 1.367982 210 216 223
-0.683074 -0.387684 1.367992 240 254 255
-0.683076 -0.387701 1.367996 83 90 112
-0.683073 -0.387679 1.367991 212 204 207
-0.683073 -0.387678 1.367990 210 207 209
-0.683066 -0.387625 1.367977 30 35 55
-0.683062 -0.387584 1.367967 43 44 45
-0.683073 -0.387684 1.367991 106 115 131
-0.683073 -0.387684 1.367991 124 129 146
-0.683074 -0.387691 1.367993 64 73 105
-0.683073 -0.387682 1.367991 254 255 255
-0.683060 -0.387575 1.367965 79 80 81
-0.683072 -0.387676 1.367989 209 198 203
-0.683073 -0.387684 1.367991 205 214 228
-0.683073 -0.387690 1.367992 168 180 203
-0.683060 -0.387578 1.367965 105 110 111
-0.683061 -0.387587 1.367967 90 92 91
-0.683060 -0.387578 1.367965 59 62 63
-0.683060 -0.387578 1.367965 59 62 63
-0.683073 -0.387690 1.367992 52 59 86
-0.683060 -0.387586 1.367967 87 90 93
-0.683060 -0.387581 1.367966 128 129 130
-0.683065 -0.387629 1.367977 40 45 65
-0.683065 -0.387629 1.367977 40 45 65
-0.683060 -0.387583 1.367966 114 117 118
-0.683059 -0.387574 1.367964 75 78 79
-0.683071 -0.387678 1.367988 40 46 75
-0.683072 -0.387690 1.367991 171 179 203
-0.683060 -0.387588 1.367967 87 88 89
-0.683059 -0.387580 1.367965 60 65 66
-0.683059 -0.387581 1.367965 152 155 156
-0.683059 -0.387585 1.367966 91 94 95
-0.683059 -0.387584 1.367965 105 110 111
-0.683059 -0.387584 1.367965 105 110 111
-0.683060 -0.387587 1.367966 44 45 46
-0.683071 -0.387681 1.367989 200 219 235
-0.683059 -0.387583 1.367965 53 56 57
-0.683058 -0.387578 1.367964 131 134 135
-0.683071 -0.387689 1.367990 54 61 88
-0.683064 -0.387626 1.367975 38 41 58
-0.683064 -0.387626 1.367975 38 41 58
-0.683070 -0.387678 1.367988 54 46 65
-0.683070 -0.387678 1.367988 54 46 65
-0.683071 -0.387689 1.367990 56 62 91
-0.683058 -0.387581 1.367964 66 71 74
-0.683059 -0.387584 1.367965 57 61 60
-0.683059 -0.387584 1.367965 57 61 60
-0.683060 -0.387595 1.367967 51 53 52
-0.683070 -0.387680 1.367988 89 104 125
-0.683063 -0.387628 1.367975 196 184 184
-0.683063 -0.387628 1.367975 196 184 184
-0.683069 -0.387671 1.367985 115 118 135
-0.683059 -0.387587 1.367965 139 143 142
-0.683071 -0.387694 1.367991 40 42 72
-0.683063 -0.387630 1.367975 189 188 190
-0.683057 -0.387579 1.367963 111 116 119
-0.683059 -0.387593 1.367966 19 21 20
-0.683069 -0.387678 1.367987 190 200 212
-0.683069 -0.387679 1.367987 90 104 127
-0.683057 -0.387583 1.367964 124 128 127
-0.683059 -0.387592 1.367966 69 71 70
-0.683058 -0.387589 1.367965 89 92 93
-0.683068 -0.387675 1.367986 55 60 82
-0.683070 -0.387694 1.367990 72 64 93
-0.683068 -0.387676 1.367986 192 186 192
-0.683068 -0.387676 1.367986 192 186 192
-0.683057 -0.387583 1.367963 66 69 70
-0.683057 -0.387586 1.367964 94 95 96
-0.683070 -0.387696 1.367990 88 94 112
-0.683069 -0.387682 1.367987 213 208 210
-0.683056 -0.387578 1.367962 61 69 69
-0.683056 -0.387575 1.367961 130 133 134
-0.683056 -0.387575 1.367961 130 133 134
-0.683057 -0.387585 1.367963 57 58 59
-0.683069 -0.387686 1.367987 36 45 77
-0.683070 -0.387692 1.367989 77 76 96
-0.683056 -0.387585 1.367963 111 114 115
-0.683070 -0.387696 1.367990 81 91 120
-0.683068 -0.387681 1.367986 217 213 219
-0.683068 -0.387681 1.367986 217 213 219
-0.683068 -0.387681 1.367986 217 213 219
-0.683057 -0.387589 1.367964 90 93 94
-0.683067 -0.387679 1.367985 250 251 254
-0.683057 -0.387590 1.367964 92 96 95
-0.683057 -0.387590 1.367964 92 96 95
-0.683056 -0.387585 1.367963 43 51 51
-0.683068 -0.387683 1.367986 211 217 230
-0.683057 -0.387590 1.367964 64 67 68
-0.683067 -0.387680 1.367985 55 55 66
-0.683067 -0.387681 1.367985 49 45 61
-0.683067 -0.387681 1.367985 49 45 61
-0.683060 -0.387624 1.367972 168 167 165
-0.683069 -0.387695 1.367989 59 70 96
-0.683069 -0.387693 1.367988 255 251 255
-0.683069 -0.387693 1.367988 255 251 255
-0.683056 -0.387589 1.367963 79 83 82
-0.683056 -0.387589 1.367963 79 83 82
-0.683066 -0.387679 1.367984 100 105 120
-0.683068 -0.387690 1.367987 72 62 81
-0.683055 -0.387587 1.367962 72 76 75
-0.683060 -0.387630 1.367972 56 54 70
-0.683060 -0.387628 1.367972 38 45 65
-0.683055 -0.387586 1.367962 101 106 107
-0.683066 -0.387678 1.367984 183 186 195
-0.683055 -0.387582 1.367961 104 112 112
-0.683065 -0.387670 1.367982 117 119 138
-0.683055 -0.387590 1.367963 64 67 68
-0.683066 -0.387679 1.367984 47 54 81
-0.683054 -0.387582 1.367961 40 43 44
-0.683054 -0.387586 1.367961 94 97 98
-0.683066 -0.387682 1.367984 34 42 74
-0.683054 -0.387581 1.367960 121 124 125
-0.683055 -0.387591 1.367962 92 94 93
-0.683066 -0.387690 1.367986 255 251 255
-0.683066 -0.387688 1.367985 107 100 109
-0.683067 -0.387692 1.367986 87 103 128
-0.683062 -0.387656 1.367977 172 170 170
-0.683065 -0.387678 1.367983 115 117 122
-0.683065 -0.387678 1.367983 115 117 122
-0.683054 -0.387586 1.367961 42 45 46
-0.683059 -0.387629 1.367971 197 189 185
-0.683053 -0.387581 1.367959 62 67 68
-0.683054 -0.387588 1.367961 22 25 26
-0.683054 -0.387588 1.367961 22 25 26
-0.683066 -0.387690 1.367985 114 120 138
-0.683065 -0.387679 1.367983 38 47 69
-0.683053 -0.387582 1.367959 105 108 109
-0.683064 -0.387676 1.367982 31 31 42
-0.683064 -0.387676 1.367982 31 31 42
-0.683065 -0.387684 1.367984 64 59 79
-0.683054 -0.387589 1.367961 86 87 88
-0.683064 -0.387673 1.367981 35 43 61
-0.683053 -0.387586 1.367960 133 136 137
-0.683063 -0.387670 1.367980 114 117 134
-0.683058 -0.387625 1.367969 30 36 60
-0.683066 -0.387691 1.367985 241 251 255
-0.683053 -0.387584 1.367959 110 113 114
-0.683053 -0.387584 1.367959 110 113 114
-0.683058 -0.387627 1.367969 184 176 177
-0.683063 -0.387673 1.367981 19 38 60
-0.683065 -0.387690 1.367985 160 172 195
-0.683064 -0.387677 1.367982 178 185 195
-0.683065 -0.387691 1.367985 71 78 105
-0.683063 -0.387675 1.367981 24 23 37
-0.683065 -0.387689 1.367984 112 121 143
-0.683064 -0.387682 1.367982 47 42 52
-0.683052 -0.387586 1.367959 35 38 39
-0.683064 -0.387686 1.367983 175 174 183
-0.683058 -0.387634 1.367971 33 38 71
-0.683063 -0.387680 1.367982 42 45 72
-0.683063 -0.387680 1.367982 42 45 72
-0.683051 -0.387575 1.367957 119 124 125
-0.683063 -0.387677 1.367981 34 46 67
-0.683051 -0.387580 1.367957 103 108 109
-0.683064 -0.387689 1.367984 76 88 116
-0.683051 -0.387582 1.367958 64 69 70
-0.683051 -0.387581 1.367958 114 117 118
-0.683051 -0.387581 1.367958 114 117 118
-0.683057 -0.387628 1.367969 38 41 62
-0.683057 -0.387628 1.367969 38 41 62
-0.683051 -0.387582 1.367958 53 56 57
-0.683063 -0.387682 1.367982 73 71 77
-0.683063 -0.387682 1.367982 73 71 77
-0.683051 -0.387582 1.367958 138 141 142
-0.683051 -0.387587 1.367959 34 37 38
-0.683050 -0.387577 1.367956 61 64 65
-0.683063 -0.387684 1.367981 155 156 165
-0.683063 -0.387684 1.367981 155 156 165
-0.683051 -0.387587 1.367958 121 122 123
-0.683051 -0.387589 1.367959 25 29 28
-0.683061 -0.387674 1.367979 15 25 51
-0.683051 -0.387589 1.367959 106 110 109
-0.683050 -0.387580 1.367957 56 61 62
-0.683051 -0.387588 1.367958 31 34 35
-0.683057 -0.387638 1.367970 75 87 108
-0.683050 -0.387585 1.367957 105 108 109
-0.683061 -0.387678 1.367980 199 196 198
-0.683051 -0.387593 1.367959 62 64 63
-0.683049 -0.387581 1.367956 54 59 60
-0.683049 -0.387581 1.367956 54 59 60
-0.683049 -0.387581 1.367956 54 59 60
-0.683048 -0.387574 1.367954 119 122 123
-0.683050 -0.387586 1.367957 43 46 47
-0.683049 -0.387584 1.367956 110 113 114
-0.683049 -0.387584 1.367956 110 113 114
-0.683060 -0.387674 1.367978 31 23 40
-0.683050 -0.387589 1.367957 121 123 122
-0.683054 -0.387627 1.367966 189 183 182
-0.683049 -0.387586 1.367956 33 36 37
-0.683048 -0.387580 1.367955 68 71 72
-0.683049 -0.387589 1.367957 25 28 29
-0.683060 -0.387679 1.367978 246 254 255
-0.683060 -0.387679 1.367978 246 254 255
-0.683059 -0.387675 1.367977 184 187 195
-0.683048 -0.387586 1.367956 98 102 101
-0.683048 -0.387587 1.367956 78 81 82
-0.683049 -0.387588 1.367956 106 107 108
-0.683047 -0.387580 1.367954 130 133 134
-0.683047 -0.387580 1.367954 130 133 134
-0.683048 -0.387588 1.367956 82 85 86
-0.683048 -0.387583 1.367955 100 103 104
-0.683059 -0.387675 1.367977 86 89 98
-0.683059 -0.387675 1.367977 86 89 98
-0.683058 -0.387669 1.367975 239 247 255
-0.683047 -0.387578 1.367953 58 66 66
-0.683045 -0.387558 1.367949 137 142 143
-0.683059 -0.387681 1.367978 192 198 206
-0.683047 -0.387581 1.367954 107 112 113
-0.683059 -0.387678 1.367977 127 148 166
-0.683059 -0.387684 1.367978 22 33 65
-0.683058 -0.387674 1.367976 206 206 217
-0.683047 -0.387583 1.367954 49 52 53
-0.683047 -0.387583 1.367954 49 52 53
-0.683046 -0.387573 1.367952 120 123 124
-0.683047 -0.387583 1.367954 107 110 111
-0.683058 -0.387682 1.367977 50 50 68
-0.683058 -0.387683 1.367977 18 28 57
-0.683046 -0.387582 1.367953 101 104 105
-0.683046 -0.387582 1.367953 101 104 105
-0.683047 -0.387590 1.367955 72 72 72
-0.683045 -0.387572 1.367951 110 113 114
-0.683045 -0.387572 1.367951 110 113 114
-0.683058 -0.387678 1.367976 100 118 145
-0.683046 -0.387583 1.367954 102 105 106
-0.683057 -0.387676 1.367976 98 114 139
-0.683046 -0.387583 1.367953 50 53 54
-0.683045 -0.387577 1.367952 57 62 63
-0.683057 -0.387679 1.367976 168 171 179
-0.683057 -0.387676 1.367975 86 102 127
-0.683051 -0.387625 1.367963 33 40 62
-0.683046 -0.387584 1.367953 100 101 102
-0.683046 -0.387583 1.367953 55 58 59
-0.683046 -0.387583 1.367953 119 124 125
-0.683047 -0.387592 1.367955 10 12 11
-0.683045 -0.387580 1.367952 114 117 118
-0.683057 -0.387678 1.367975 33 45 74
-0.683057 -0.387680 1.367976 30 34 58
-0.683047 -0.387592 1.367955 76 78 77
-0.683046 -0.387590 1.367954 63 67 66
-0.683057 -0.387681 1.367976 25 34 62
-0.683045 -0.387578 1.367951 56 64 66
-0.683056 -0.387676 1.367975 32 38 62
-0.683045 -0.387582 1.367952 122 125 126
-0.683045 -0.387582 1.367952 122 125 126
-0.683045 -0.387582 1.367952 49 52 53
-0.683045 -0.387581 1.367952 124 129 130
-0.683056 -0.387679 1.367975 200 201 202
-0.683056 -0.387680 1.367975 163 168 183
-0.683056 -0.387680 1.367975 163 168 183
-0.683044 -0.387580 1.367951 49 52 53
-0.683044 -0.387577 1.367951 124 129 132
-0.683050 -0.387628 1.367962 199 195 195
-0.683055 -0.387675 1.367974 159 159 175
-0.683055 -0.387675 1.367974 159 159 175
-0.683055 -0.387674 1.367974 44 41 61
-0.683044 -0.387579 1.367951 50 53 54
-0.683043 -0.387573 1.367949 126 129 132
-0.683055 -0.387676 1.367974 33 33 51
-0.683056 -0.387677 1.367974 174 180 188
-0.683044 -0.387581 1.367951 119 122 123
-0.683044 -0.387581 1.367951 119 122 123
-0.683055 -0.387679 1.367974 20 18 40
-0.683043 -0.387579 1.367950 122 125 126
-0.683043 -0.387579 1.367950 122 125 126
-0.683049 -0.387626 1.367961 181 180 178
-0.683049 -0.387626 1.367961 181 180 178
-0.683043 -0.387575 1.367949 119 124 125
-0.683043 -0.387575 1.367949 119 124 125
-0.683054 -0.387675 1.367973 42 40 51
-0.683043 -0.387577 1.367949 62 67 68
-0.683055 -0.387675 1.367973 182 181 190
-0.683044 -0.387588 1.367952 80 83 84
-0.683055 -0.387682 1.367974 255 254 255
-0.683043 -0.387581 1.367950 104 107 108
-0.683054 -0.387678 1.367973 30 30 46
-0.683043 -0.387582 1.367950 62 63 64
-0.683048 -0.387624 1.367960 34 39 59
-0.683042 -0.387576 1.367948 127 130 131
-0.683043 -0.387582 1.367950 47 48 49
-0.683054 -0.387678 1.367973 132 134 139
-0.683047 -0.387623 1.367959 178 176 176
-0.683047 -0.387623 1.367959 178 176 176
-0.683042 -0.387581 1.367949 47 50 51
-0.683054 -0.387677 1.367972 137 138 141
-0.683042 -0.387582 1.367949 117 120 121
-0.683042 -0.387582 1.367949 117 120 121
-0.683042 -0.387580 1.367949 56 59 60
-0.683047 -0.387625 1.367959 182 184 189
-0.683042 -0.387582 1.367949 103 106 107
-0.683042 -0.387581 1.367949 62 65 66
-0.683052 -0.387670 1.367970 22 29 56
-0.683047 -0.387628 1.367960 50 48 66
-0.683041 -0.387577 1.367948 109 112 113
-0.683041 -0.387577 1.367948 109 112 113
-0.683053 -0.387676 1.367971 104 106 111
-0.683041 -0.387577 1.367948 74 77 78
-0.683041 -0.387581 1.367949 116 119 120
-0.683042 -0.387587 1.367950 134 135 136
-0.683042 -0.387587 1.367950 134 135 136
-0.683042 -0.387585 1.367949 84 89 90
-0.683041 -0.387583 1.367949 37 40 41
-0.683046 -0.387627 1.367959 37 41 65
-0.683046 -0.387627 1.367959 37 41 65
-0.683040 -0.387576 1.367947 137 140 141
-0.683041 -0.387584 1.367949 104 107 108
-0.683041 -0.387584 1.367949 104 107 108
-0.683041 -0.387581 1.367948 50 53 54
-0.683041 -0.387583 1.367948 103 106 107
-0.683040 -0.387577 1.367947 122 125 126
-0.683040 -0.387576 1.367947 61 64 65
-0.683040 -0.387576 1.367947 61 64 65
-0.683040 -0.387576 1.367946 67 70 71
-0.683041 -0.387588 1.367949 84 87 88
-0.683040 -0.387576 1.367946 114 117 118
-0.683040 -0.387583 1.367948 91 94 95
-0.683045 -0.387624 1.367957 32 37 59
-0.683038 -0.387565 1.367943 127 132 135
-0.683038 -0.387565 1.367943 127 132 135
-0.683038 -0.387565 1.367943 127 132 135
-0.683039 -0.387579 1.367946 112 117 118
-0.683040 -0.387586 1.367948 31 33 32
-0.683040 -0.387590 1.367949 18 20 19
-0.683044 -0.387628 1.367957 190 190 190
-0.683044 -0.387628 1.367957 190 190 190
-0.683038 -0.387573 1.367944 110 115 116
-0.683038 -0.387573 1.367944 110 115 116
-0.683038 -0.387572 1.367944 140 143 146
-0.683038 -0.387572 1.367944 140 143 146
-0.683037 -0.387567 1.367943 145 150 153
-0.683037 -0.387567 1.367943 145 150 153
-0.683045 -0.387637 1.367959 59 65 94
-0.683038 -0.387577 1.367945 118 123 126
-0.683038 -0.387577 1.367945 118 123 126
-0.683048 -0.387664 1.367966 186 189 190
-0.683049 -0.387667 1.367967 29 25 25
-0.683038 -0.387581 1.367946 46 49 50
-0.683037 -0.387575 1.367944 61 66 69
-0.683038 -0.387579 1.367945 47 50 53
-0.683038 -0.387583 1.367946 91 96 97
-0.683048 -0.387665 1.367966 25 26 29
-0.683039 -0.387586 1.367947 100 101 102
-0.683037 -0.387577 1.367944 116 121 124
-0.683043 -0.387625 1.367956 171 170 172
-0.683043 -0.387625 1.367956 171 170 172
-0.683048 -0.387664 1.367965 249 248 250
-0.683048 -0.387664 1.367965 249 248 250
-0.683047 -0.387660 1.367964 135 132 136
-0.683038 -0.387585 1.367946 27 30 31
-0.683037 -0.387575 1.367943 121 129 129
-0.683037 -0.387575 1.367943 121 129 129
-0.683038 -0.387589 1.367947 59 61 60
-0.683037 -0.387582 1.367945 50 53 54
-0.683046 -0.387659 1.367963 181 180 182
-0.683037 -0.387585 1.367945 87 90 91
-0.683043 -0.387631 1.367956 30 39 68
-0.683037 -0.387581 1.367944 38 41 42
-0.683046 -0.387664 1.367964 255 253 255
-0.683046 -0.387664 1.367964 255 253 255
-0.683046 -0.387664 1.367964 255 253 255
-0.683046 -0.387664 1.367964 255 253 255
-0.683043 -0.387636 1.367957 76 78 97
-0.683035 -0.387575 1.367942 71 76 77
-0.683036 -0.387582 1.367944 91 94 95
-0.683041 -0.387626 1.367954 38 42 61
-0.683036 -0.387583 1.367944 29 32 33
-0.683046 -0.387662 1.367963 74 84 86
-0.683036 -0.387581 1.367943 111 116 117
-0.683042 -0.387633 1.367956 55 54 74
-0.683036 -0.387584 1.367944 31 34 35
-0.683036 -0.387584 1.367944 113 118 119
-0.683036 -0.387584 1.367944 113 118 119
-0.683042 -0.387637 1.367956 220 225 226
-0.683041 -0.387635 1.367955 217 217 217
-0.683035 -0.387577 1.367942 99 102 103
-0.683035 -0.387577 1.367942 99 102 103
-0.683034 -0.387573 1.367940 114 119 120
-0.683034 -0.387578 1.367941 69 70 71
-0.683033 -0.387574 1.367940 64 69 70
-0.683033 -0.387572 1.367939 61 67 66
-0.683033 -0.387575 1.367940 111 119 119
-0.683034 -0.387580 1.367941 109 112 113
-0.683034 -0.387580 1.367941 109 112 113
-0.683039 -0.387627 1.367952 191 191 191
-0.683034 -0.387580 1.367941 106 109 110
-0.683038 -0.387625 1.367951 173 172 174
-0.683038 -0.387625 1.367951 173 172 174
-0.683033 -0.387577 1.367940 148 153 154
-0.683034 -0.387587 1.367942 80 81 82
-0.683040 -0.387646 1.367956 107 106 126
-0.683032 -0.387579 1.367940 58 61 62
-0.683030 -0.387567 1.367936 122 125 128
-0.683031 -0.387578 1.367939 120 125 126
-0.683031 -0.387579 1.367939 121 126 127
-0.683031 -0.387573 1.367938 130 133 134
-0.683031 -0.387577 1.367939 69 74 75
-0.683032 -0.387589 1.367941 82 84 83
-0.683032 -0.387589 1.367941 82 84 83
-0.683036 -0.387626 1.367949 32 42 68
-0.683030 -0.387570 1.367936 109 113 112
-0.683032 -0.387585 1.367940 88 90 89
-0.683036 -0.387624 1.367949 152 158 165
-0.683036 -0.387624 1.367949 152 158 165
-0.683031 -0.387579 1.367938 56 59 60
-0.683030 -0.387575 1.367937 110 113 114
-0.683031 -0.387583 1.367939 42 46 45
-0.683029 -0.387569 1.367935 118 121 122
-0.683031 -0.387584 1.367939 37 41 40
-0.683031 -0.387589 1.367940 93 95 94
-0.683029 -0.387571 1.367936 121 124 125
-0.683029 -0.387571 1.367936 121 124 125
-0.683030 -0.387582 1.367938 95 100 101
-0.683030 -0.387582 1.367938 95 100 101
-0.683031 -0.387589 1.367940 25 27 26
-0.683028 -0.387569 1.367935 65 68 69
-0.683040 -0.387663 1.367958 93 101 103
-0.683030 -0.387584 1.367939 93 95 94
-0.683029 -0.387576 1.367936 114 117 118
-0.683030 -0.387585 1.367938 33 34 35
-0.683030 -0.387586 1.367939 22 24 23
-0.683029 -0.387578 1.367937 111 114 115
-0.683028 -0.387572 1.367935 61 64 67
-0.683030 -0.387583 1.367938 107 111 110
-0.683028 -0.387570 1.367935 66 69 72
-0.683028 -0.387570 1.367935 66 69 72
-0.683028 -0.387573 1.367935 146 151 152
-0.683035 -0.387635 1.367949 66 77 103
-0.683036 -0.387649 1.367953 224 225 226
-0.683037 -0.387656 1.367955 97 100 101
-0.683029 -0.387588 1.367938 85 87 86
-0.683029 -0.387588 1.367938 85 87 86
-0.683029 -0.387585 1.367937 32 34 33
-0.683028 -0.387580 1.367936 100 103 104
-0.683028 -0.387580 1.367936 100 103 104
-0.683027 -0.387571 1.367934 115 120 121
-0.683027 -0.387573 1.367934 68 73 76
-0.683038 -0.387662 1.367956 254 255 255
-0.683028 -0.387575 1.367935 120 125 126
-0.683028 -0.387579 1.367936 51 54 55
-0.683027 -0.387574 1.367934 72 71 73
-0.683029 -0.387585 1.367937 25 27 26
-0.683027 -0.387573 1.367934 130 133 134
-0.683028 -0.387583 1.367937 42 43 44
-0.683028 -0.387585 1.367937 75 79 78
-0.683028 -0.387585 1.367936 35 38 39
-0.683028 -0.387583 1.367936 124 125 126
-0.683028 -0.387585 1.367936 91 92 93
-0.683027 -0.387582 1.367936 41 42 43
-0.683026 -0.387575 1.367934 116 121 122
-0.683037 -0.387660 1.367954 68 82 88
-0.683027 -0.387587 1.367936 63 65 64
-0.683034 -0.387648 1.367950 228 229 232
-0.683026 -0.387575 1.367933 50 55 56
-0.683026 -0.387583 1.367935 42 43 44
-0.683025 -0.387575 1.367933 124 127 128
-0.683026 -0.387581 1.367934 112 115 116
-0.683025 -0.387577 1.367933 97 102 103
-0.683026 -0.387580 1.367934 51 54 55
-0.683024 -0.387571 1.367931 123 126 127
-0.683026 -0.387583 1.367934 122 125 126
-0.683026 -0.387583 1.367934 122 125 126
-0.683026 -0.387587 1.367935 19 21 20
-0.683031 -0.387632 1.367946 66 72 102
-0.683025 -0.387582 1.367934 51 54 55
-0.683024 -0.387575 1.367932 110 113 114
-0.683025 -0.387586 1.367935 63 66 67
-0.683025 -0.387579 1.367933 104 107 108
-0.683025 -0.387583 1.367933 33 36 37
-0.683024 -0.387581 1.367933 46 49 50
-0.683024 -0.387578 1.367932 112 117 118
-0.683024 -0.387584 1.367933 109 111 110
-0.683023 -0.387576 1.367931 127 130 131
-0.683024 -0.387579 1.367932 50 53 54
-0.683023 -0.387578 1.367931 55 60 61
-0.683023 -0.387575 1.367931 117 120 123
-0.683024 -0.387585 1.367933 77 80 81
-0.683024 -0.387584 1.367932 75 77 76
-0.683024 -0.387585 1.367933 33 36 37
-0.683024 -0.387585 1.367933 33 36 37
-0.683022 -0.387577 1.367930 59 62 63
-0.683023 -0.387580 1.367931 61 64 65
-0.683030 -0.387645 1.367947 25 34 62
-0.683030 -0.387646 1.367947 149 157 169
-0.683022 -0.387576 1.367930 127 132 133
-0.683023 -0.387580 1.367931 107 110 111
-0.683022 -0.387573 1.367929 103 111 111
-0.683022 -0.387578 1.367930 48 51 52
-0.683021 -0.387574 1.367929 50 56 55
-0.683021 -0.387574 1.367929 50 56 55
-0.683022 -0.387580 1.367930 46 49 50
-0.683022 -0.387581 1.367930 47 50 51
-0.683021 -0.387577 1.367929 49 52 53
-0.683022 -0.387584 1.367931 109 112 113
-0.683022 -0.387586 1.367932 29 31 30
-0.683022 -0.387580 1.367930 107 110 111
-0.683021 -0.387577 1.367929 125 128 129
-0.683021 -0.387575 1.367928 104 109 112
-0.683021 -0.387582 1.367930 126 129 130
-0.683021 -0.387577 1.367929 103 106 107
-0.683021 -0.387577 1.367929 103 106 107
-0.683021 -0.387583 1.367930 38 39 40
-0.683021 -0.387577 1.367929 56 59 60
-0.683027 -0.387635 1.367942 95 98 113
-0.683021 -0.387580 1.367929 35 38 39
