ply
format ascii 1.0
element vertex 1210
property float x
property float y
property float z
property uchar red
property uchar green
property uchar blue
end_header
-0.587480 -0.331084 1.174829 239 241 240
-0.587481 -0.331094 1.174830 18 20 19
-0.587482 -0.331113 1.174832 98 151 148
-0.587482 -0.331113 1.174832 129 210 208
-0.587481 -0.331100 1.174831 180 182 181
-0.587481 -0.331100 1.174831 180 182 181
-0.587478 -0.331028 1.174824 118 120 119
-0.587480 -0.331085 1.174830 55 57 56
-0.587480 -0.331069 1.174829 29 34 37
-0.587482 -0.331106 1.174832 165 255 255
-0.587480 -0.331068 1.174829 79 82 83
-0.587481 -0.331097 1.174832 16 17 18
-0.587477 -0.331024 1.174824 34 40 39
-0.587477 -0.331024 1.174824 34 40 39
-0.587478 -0.331034 1.174825 97 101 100
-0.587482 -0.331113 1.174834 62 114 114
-0.587478 -0.331033 1.174826 34 36 35
-0.587478 -0.331033 1.174826 34 36 35
-0.587478 -0.331033 1.174826 34 36 35
-0.587478 -0.331027 1.174825 52 60 60
-0.587477 -0.331015 1.174824 111 112 110
-0.587478 -0.331025 1.174825 40 61 71
-0.587478 -0.331026 1.174825 55 79 80
-0.587480 -0.331077 1.174830 162 164 163
-0.587480 -0.331067 1.174829 17 19 18
-0.587481 -0.331085 1.174831 254 255 255
-0.587478 -0.331028 1.174825 106 111 112
-0.587481 -0.331085 1.174832 235 237 236
-0.587481 -0.331084 1.174832 31 31 31
-0.587481 -0.331100 1.174834 70 118 119
-0.587482 -0.331106 1.174834 242 255 255
-0.587480 -0.331068 1.174830 28 31 32
-0.587480 -0.331069 1.174831 152 153 154
-0.587478 -0.331026 1.174826 136 209 211
-0.587478 -0.331036 1.174828 32 34 33
-0.587478 -0.331036 1.174828 32 34 33
-0.587481 -0.331084 1.174833 32 34 33
-0.587478 -0.331028 1.174827 244 249 252
-0.587481 -0.331098 1.174834 43 71 70
-0.587480 -0.331076 1.174832 244 247 248
-0.587481 -0.331099 1.174834 0 35 32
-0.587481 -0.331084 1.174833 216 218 217
-0.587483 -0.331120 1.174837 105 110 111
-0.587483 -0.331119 1.174837 154 235 239
-0.587478 -0.331031 1.174828 43 46 47
-0.587481 -0.331086 1.174834 180 183 184
-0.587482 -0.331103 1.174836 112 100 93
-0.587482 -0.331103 1.174836 112 100 93
-0.587480 -0.331069 1.174832 89 92 93
-0.587478 -0.331027 1.174828 40 65 69
-0.587478 -0.331027 1.174828 40 65 69
-0.587478 -0.331027 1.174828 43 66 70
-0.587478 -0.331032 1.174829 39 44 45
-0.587478 -0.331032 1.174829 39 44 45
-0.587480 -0.331068 1.174833 28 36 36
-0.587478 -0.331031 1.174829 143 144 145
-0.587478 -0.331033 1.174829 37 45 47
-0.587480 -0.331068 1.174833 28 36 36
-0.587477 -0.331015 1.174827 115 117 116
-0.587481 -0.331097 1.174837 36 68 68
-0.587482 -0.331107 1.174837 48 52 45
-0.587478 -0.331030 1.174829 134 186 187
-0.587481 -0.331087 1.174836 237 240 241
-0.587482 -0.331116 1.174839 118 219 222
-0.587480 -0.331070 1.174834 106 107 108
-0.587480 -0.331070 1.174834 208 209 210
-0.587478 -0.331026 1.174830 125 133 135
-0.587481 -0.331086 1.174836 42 42 42
-0.587480 -0.331070 1.174835 151 153 152
-0.587480 -0.331068 1.174835 42 45 46
-0.587480 -0.331069 1.174835 33 35 34
-0.587478 -0.331031 1.174831 110 209 207
-0.587478 -0.331031 1.174831 110 209 207
-0.587478 -0.331031 1.174831 110 209 207
-0.587478 -0.331035 1.174832 42 45 48
-0.587482 -0.331099 1.174838 17 18 19
-0.587478 -0.331020 1.174830 1 37 39
-0.587478 -0.331034 1.174832 154 202 203
-0.587482 -0.331108 1.174839 125 232 232
-0.587482 -0.331108 1.174839 125 232 232
-0.587480 -0.331069 1.174835 130 131 132
-0.587481 -0.331088 1.174837 250 251 252
-0.587478 -0.331032 1.174832 40 42 41
-0.587479 -0.331038 1.174833 22 25 22
-0.587479 -0.331038 1.174833 22 25 22
-0.587483 -0.331122 1.174841 109 113 112
-0.587479 -0.331042 1.174833 16 18 17
-0.587482 -0.331109 1.174840 32 45 42
-0.587480 -0.331068 1.174836 60 63 64
-0.587480 -0.331070 1.174836 161 163 162
-0.587481 -0.331089 1.174838 224 227 228
-0.587480 -0.331070 1.174837 150 152 151
-0.587480 -0.331075 1.174837 239 245 244
-0.587482 -0.331097 1.174840 44 75 78
-0.587482 -0.331097 1.174840 44 75 78
-0.587482 -0.331112 1.174841 64 66 65
-0.587480 -0.331056 1.174836 51 61 61
-0.587478 -0.331027 1.174832 45 50 51
-0.587480 -0.331072 1.174837 163 167 166
-0.587481 -0.331095 1.174839 15 18 15
-0.587482 -0.331107 1.174841 20 38 33
-0.587481 -0.331087 1.174839 111 111 111
-0.587478 -0.331028 1.174833 150 155 152
-0.587479 -0.331038 1.174834 101 103 102
-0.587478 -0.331027 1.174833 48 52 51
-0.587482 -0.331111 1.174842 125 233 239
-0.587479 -0.331038 1.174835 37 39 38
-0.587480 -0.331073 1.174838 151 155 154
-0.587478 -0.331029 1.174834 38 42 41
-0.587478 -0.331029 1.174834 38 42 41
-0.587481 -0.331075 1.174839 108 112 111
-0.587478 -0.331032 1.174834 38 41 42
-0.587482 -0.331100 1.174841 60 124 129
-0.587483 -0.331114 1.174843 58 59 57
-0.587482 -0.331107 1.174842 97 180 177
-0.587479 -0.331037 1.174835 38 41 42
-0.587481 -0.331089 1.174841 65 66 64
-0.587481 -0.331087 1.174840 51 51 51
-0.587481 -0.331074 1.174839 162 167 168
-0.587478 -0.331028 1.174835 184 204 204
-0.587478 -0.331029 1.174835 51 53 52
-0.587478 -0.331029 1.174835 51 53 52
-0.587483 -0.331111 1.174843 0 50 51
-0.587479 -0.331035 1.174836 8 53 51
-0.587479 -0.331035 1.174836 8 53 51
-0.587482 -0.331095 1.174842 19 21 20
-0.587483 -0.331113 1.174844 137 230 234
-0.587483 -0.331113 1.174844 137 230 234
-0.587479 -0.331036 1.174836 114 221 219
-0.587478 -0.331026 1.174835 133 212 222
-0.587478 -0.331026 1.174835 133 212 222
-0.587482 -0.331099 1.174842 0 36 37
-0.587483 -0.331112 1.174844 112 197 199
-0.587481 -0.331088 1.174841 59 59 59
-0.587479 -0.331038 1.174836 124 127 130
-0.587478 -0.331032 1.174836 40 41 42
-0.587482 -0.331097 1.174843 12 17 18
-0.587481 -0.331075 1.174840 249 251 250
-0.587481 -0.331075 1.174840 249 251 250
-0.587482 -0.331108 1.174844 0 37 36
-0.587482 -0.331107 1.174844 71 152 150
-0.587480 -0.331061 1.174839 104 99 95
-0.587481 -0.331087 1.174842 63 63 63
-0.587482 -0.331108 1.174844 77 140 138
-0.587481 -0.331074 1.174841 100 103 104
-0.587479 -0.331038 1.174837 105 104 106
-0.587481 -0.331075 1.174841 101 105 104
-0.587481 -0.331074 1.174841 213 216 217
-0.587479 -0.331037 1.174837 152 237 239
-0.587478 -0.331030 1.174837 121 177 177
-0.587480 -0.331061 1.174840 178 165 158
-0.587483 -0.331110 1.174845 27 39 35
-0.587481 -0.331075 1.174841 118 122 121
-0.587481 -0.331075 1.174841 118 122 121
-0.587482 -0.331096 1.174844 161 183 183
-0.587482 -0.331102 1.174844 77 96 96
-0.587482 -0.331095 1.174844 149 168 168
-0.587478 -0.331029 1.174837 74 143 141
-0.587478 -0.331029 1.174837 74 143 141
-0.587481 -0.331088 1.174843 171 171 171
-0.587481 -0.331088 1.174843 171 171 171
-0.587481 -0.331089 1.174843 59 59 59
-0.587482 -0.331097 1.174844 117 154 157
-0.587481 -0.331083 1.174843 31 34 31
-0.587483 -0.331111 1.174846 86 162 163
-0.587483 -0.331111 1.174846 86 162 163
-0.587483 -0.331111 1.174846 86 162 163
-0.587482 -0.331099 1.174845 2 32 38
-0.587479 -0.331031 1.174837 129 187 186
-0.587481 -0.331067 1.174842 16 17 15
-0.587483 -0.331123 1.174847 99 102 103
-0.587481 -0.331070 1.174842 136 139 140
-0.587482 -0.331097 1.174845 53 92 95
-0.587480 -0.331067 1.174842 16 17 15
-0.587478 -0.331027 1.174838 42 57 60
-0.587483 -0.331108 1.174846 87 135 135
-0.587482 -0.331096 1.174845 39 54 51
-0.587482 -0.331102 1.174846 92 134 136
-0.587483 -0.331113 1.174847 23 27 26
-0.587482 -0.331096 1.174845 109 122 119
-0.587480 -0.331064 1.174842 229 231 230
-0.587479 -0.331033 1.174839 42 45 46
-0.587483 -0.331115 1.174848 6 44 41
-0.587483 -0.331115 1.174848 6 44 41
-0.587483 -0.331115 1.174848 6 44 41
-0.587482 -0.331097 1.174846 201 247 243
-0.587479 -0.331037 1.174840 128 230 235
-0.587482 -0.331090 1.174846 71 74 71
-0.587481 -0.331070 1.174844 22 23 26
-0.587483 -0.331111 1.174848 0 49 49
-0.587483 -0.331108 1.174848 25 31 30
-0.587483 -0.331106 1.174848 57 88 91
-0.587482 -0.331102 1.174847 77 116 118
-0.587482 -0.331100 1.174847 8 26 28
-0.587482 -0.331101 1.174847 94 138 142
-0.587482 -0.331101 1.174847 94 138 142
-0.587479 -0.331030 1.174840 42 50 50
-0.587479 -0.331030 1.174840 42 50 50
-0.587479 -0.331030 1.174840 42 50 50
-0.587481 -0.331086 1.174846 246 248 247
-0.587481 -0.331086 1.174846 246 248 247
-0.587482 -0.331103 1.174848 18 22 21
-0.587480 -0.331058 1.174843 25 35 37
-0.587483 -0.331111 1.174849 83 148 157
-0.587479 -0.331040 1.174842 223 223 223
-0.587483 -0.331112 1.174849 105 148 152
-0.587483 -0.331112 1.174849 105 148 152
-0.587479 -0.331031 1.174841 134 185 182
-0.587479 -0.331031 1.174841 134 185 182
-0.587480 -0.331060 1.174844 149 138 129
-0.587480 -0.331060 1.174844 149 138 129
-0.587482 -0.331099 1.174848 38 55 60
-0.587482 -0.331098 1.174848 204 251 254
-0.587482 -0.331098 1.174848 204 251 254
-0.587480 -0.331059 1.174844 40 44 43
-0.587480 -0.331057 1.174844 116 147 150
-0.587480 -0.331057 1.174844 116 147 150
-0.587479 -0.331041 1.174842 42 41 39
-0.587479 -0.331035 1.174842 26 73 76
-0.587479 -0.331035 1.174842 26 73 76
-0.587483 -0.331115 1.174850 88 177 176
-0.587482 -0.331098 1.174848 172 245 247
-0.587479 -0.331041 1.174842 76 78 77
-0.587479 -0.331034 1.174842 111 215 226
-0.587482 -0.331086 1.174847 185 185 185
-0.587482 -0.331086 1.174847 185 185 185
-0.587481 -0.331083 1.174847 121 162 166
-0.587481 -0.331083 1.174847 121 162 166
-0.587481 -0.331082 1.174847 85 125 124
-0.587480 -0.331055 1.174844 24 27 28
-0.587480 -0.331063 1.174845 252 255 255
-0.587482 -0.331095 1.174848 71 71 71
-0.587480 -0.331064 1.174845 75 81 80
-0.587481 -0.331071 1.174846 47 107 108
-0.587481 -0.331083 1.174847 86 142 147
-0.587480 -0.331056 1.174845 75 132 134
-0.587481 -0.331070 1.174846 52 115 114
-0.587479 -0.331037 1.174842 148 234 228
-0.587482 -0.331098 1.174849 54 86 86
-0.587480 -0.331058 1.174845 30 53 57
-0.587480 -0.331059 1.174845 78 99 95
-0.587482 -0.331086 1.174848 227 230 233
-0.587479 -0.331029 1.174842 235 240 241
-0.587480 -0.331059 1.174845 102 108 107
-0.587480 -0.331060 1.174845 42 40 34
-0.587480 -0.331059 1.174845 112 162 162
-0.587481 -0.331081 1.174848 22 25 26
-0.587482 -0.331099 1.174850 66 65 67
-0.587483 -0.331115 1.174851 1 49 49
-0.587483 -0.331115 1.174851 1 49 49
-0.587482 -0.331097 1.174849 60 64 63
-0.587480 -0.331059 1.174846 145 180 176
-0.587482 -0.331091 1.174849 79 74 70
-0.587481 -0.331064 1.174846 58 58 63
-0.587483 -0.331108 1.174851 0 42 43
-0.587480 -0.331057 1.174846 118 160 162
-0.587481 -0.331065 1.174847 135 218 220
-0.587481 -0.331065 1.174847 135 218 220
-0.587481 -0.331067 1.174847 14 18 17
-0.587481 -0.331083 1.174848 22 47 46
-0.587480 -0.331061 1.174846 45 48 45
-0.587481 -0.331066 1.174847 52 61 59
-0.587481 -0.331066 1.174847 52 61 59
-0.587480 -0.331063 1.174847 249 254 255
-0.587480 -0.331063 1.174847 249 254 255
-0.587483 -0.331120 1.174853 28 29 27
-0.587481 -0.331067 1.174847 219 225 224
-0.587481 -0.331067 1.174847 219 225 224
-0.587481 -0.331067 1.174847 219 225 224
-0.587481 -0.331066 1.174847 57 66 64
-0.587482 -0.331093 1.174850 72 73 71
-0.587480 -0.331057 1.174846 0 33 32
-0.587480 -0.331057 1.174846 35 40 41
-0.587482 -0.331092 1.174850 157 158 156
-0.587482 -0.331099 1.174851 149 235 229
-0.587481 -0.331068 1.174848 170 175 172
-0.587482 -0.331086 1.174849 43 38 47
-0.587482 -0.331084 1.174849 36 41 42
-0.587480 -0.331055 1.174846 24 29 30
-0.587483 -0.331115 1.174853 79 157 164
-0.587483 -0.331115 1.174853 79 157 164
-0.587480 -0.331060 1.174847 25 51 46
-0.587483 -0.331105 1.174852 52 89 91
-0.587483 -0.331105 1.174852 52 89 91
-0.587483 -0.331117 1.174853 23 28 29
-0.587480 -0.331058 1.174847 28 53 50
-0.587481 -0.331064 1.174848 44 49 52
-0.587482 -0.331088 1.174850 32 33 31
-0.587482 -0.331083 1.174850 4 49 51
-0.587479 -0.331034 1.174845 131 214 211
-0.587480 -0.331058 1.174847 200 213 210
-0.587479 -0.331029 1.174844 215 233 235
-0.587483 -0.331107 1.174852 48 75 74
-0.587482 -0.331082 1.174850 10 29 29
-0.587482 -0.331083 1.174850 126 140 141
-0.587483 -0.331101 1.174852 116 194 195
-0.587479 -0.331037 1.174845 146 228 224
-0.587480 -0.331059 1.174848 46 46 41
-0.587481 -0.331067 1.174848 242 255 255
-0.587483 -0.331111 1.174853 55 110 110
-0.587480 -0.331056 1.174847 7 29 29
-0.587482 -0.331093 1.174851 165 166 164
-0.587482 -0.331093 1.174851 165 166 164
-0.587482 -0.331080 1.174850 24 26 25
-0.587480 -0.331060 1.174848 116 191 188
-0.587480 -0.331060 1.174848 116 191 188
-0.587481 -0.331065 1.174849 51 66 63
-0.587481 -0.331067 1.174849 177 174 176
-0.587480 -0.331057 1.174848 42 46 45
-0.587481 -0.331068 1.174849 179 210 206
-0.587482 -0.331084 1.174851 143 166 171
-0.587481 -0.331069 1.174850 18 20 19
-0.587481 -0.331068 1.174850 56 60 59
-0.587483 -0.331100 1.174853 40 51 49
-0.587481 -0.331067 1.174850 100 112 111
-0.587481 -0.331067 1.174850 100 112 111
-0.587482 -0.331086 1.174851 29 34 35
-0.587480 -0.331058 1.174849 194 177 163
-0.587480 -0.331058 1.174849 194 177 163
-0.587480 -0.331056 1.174848 104 141 140
-0.587483 -0.331108 1.174854 45 73 72
-0.587482 -0.331082 1.174851 110 152 154
-0.587482 -0.331083 1.174852 54 60 67
-0.587482 -0.331083 1.174852 54 60 67
-0.587479 -0.331038 1.174847 56 61 58
-0.587479 -0.331038 1.174847 56 61 58
-0.587479 -0.331038 1.174847 56 61 58
-0.587482 -0.331084 1.174852 175 188 191
-0.587482 -0.331094 1.174853 143 141 141
-0.587483 -0.331116 1.174855 29 32 29
-0.587481 -0.331068 1.174850 158 213 212
-0.587481 -0.331066 1.174850 252 255 255
-0.587481 -0.331067 1.174850 155 229 222
-0.587480 -0.331056 1.174850 23 41 43
-0.587484 -0.331124 1.174856 110 126 125
-0.587481 -0.331062 1.174850 237 249 250
-0.587480 -0.331057 1.174850 54 58 57
-0.587480 -0.331057 1.174850 54 58 57
-0.587483 -0.331114 1.174856 67 112 113
-0.587483 -0.331100 1.174854 25 34 32
-0.587481 -0.331060 1.174850 48 50 49
-0.587481 -0.331060 1.174850 48 50 49
-0.587481 -0.331065 1.174851 40 77 76
-0.587481 -0.331065 1.174851 40 77 76
-0.587479 -0.331036 1.174848 33 56 68
-0.587479 -0.331036 1.174848 33 56 68
-0.587480 -0.331057 1.174850 29 43 42
-0.587481 -0.331059 1.174850 49 43 32
-0.587481 -0.331059 1.174850 49 43 32
-0.587481 -0.331058 1.174850 180 172 167
-0.587481 -0.331063 1.174851 52 57 58
-0.587481 -0.331063 1.174851 52 57 58
-0.587481 -0.331067 1.174851 59 105 99
-0.587482 -0.331078 1.174852 24 24 24
-0.587482 -0.331084 1.174853 37 45 52
-0.587481 -0.331066 1.174851 183 228 226
-0.587481 -0.331069 1.174852 34 34 34
-0.587481 -0.331064 1.174851 131 231 230
-0.587482 -0.331089 1.174854 18 19 22
-0.587481 -0.331068 1.174852 120 197 200
-0.587479 -0.331037 1.174848 130 235 243
-0.587483 -0.331097 1.174855 116 116 116
-0.587483 -0.331097 1.174855 116 116 116
-0.587481 -0.331076 1.174852 61 128 131
-0.587480 -0.331055 1.174850 5 46 43
-0.587483 -0.331101 1.174855 160 171 169
-0.587480 -0.331057 1.174851 111 156 154
-0.587480 -0.331057 1.174851 111 156 154
-0.587481 -0.331061 1.174851 85 89 88
-0.587481 -0.331062 1.174851 248 255 255
-0.587481 -0.331067 1.174852 76 81 82
-0.587483 -0.331115 1.174857 22 33 31
-0.587483 -0.331115 1.174857 22 33 31
-0.587482 -0.331085 1.174854 7 38 36
-0.587483 -0.331097 1.174855 46 46 46
-0.587483 -0.331097 1.174855 46 46 46
-0.587481 -0.331064 1.174852 50 65 68
-0.587481 -0.331064 1.174852 50 65 68
-0.587481 -0.331059 1.174852 37 46 44
-0.587481 -0.331058 1.174852 137 175 172
-0.587480 -0.331038 1.174850 143 231 232
-0.587480 -0.331038 1.174850 143 231 232
-0.587480 -0.331037 1.174850 124 237 244
-0.587481 -0.331067 1.174853 150 221 219
-0.587483 -0.331103 1.174857 75 89 90
-0.587482 -0.331080 1.174854 28 31 28
-0.587483 -0.331106 1.174857 19 20 18
-0.587484 -0.331116 1.174858 81 126 124
-0.587481 -0.331060 1.174852 52 57 54
-0.587480 -0.331038 1.174850 31 73 82
-0.587480 -0.331038 1.174850 31 73 82
-0.587484 -0.331123 1.174859 29 35 34
-0.587483 -0.331096 1.174856 119 118 116
-0.587483 -0.331096 1.174856 119 118 116
-0.587481 -0.331059 1.174852 118 199 197
-0.587481 -0.331063 1.174853 132 223 233
-0.587483 -0.331097 1.174856 58 57 55
-0.587483 -0.331097 1.174856 58 57 55
-0.587481 -0.331064 1.174853 158 249 250
-0.587481 -0.331061 1.174853 243 247 246
-0.587481 -0.331061 1.174853 243 247 246
-0.587481 -0.331057 1.174852 195 195 189
-0.587482 -0.331088 1.174856 25 41 42
-0.587481 -0.331056 1.174852 47 49 48
-0.587482 -0.331085 1.174855 91 154 152
-0.587481 -0.331061 1.174853 70 74 73
-0.587482 -0.331084 1.174855 18 30 31
-0.587479 -0.331027 1.174850 47 50 47
-0.587481 -0.331065 1.174854 207 255 255
-0.587483 -0.331096 1.174857 62 63 61
-0.587482 -0.331089 1.174856 107 172 175
-0.587481 -0.331055 1.174853 28 39 42
-0.587481 -0.331055 1.174853 29 39 41
-0.587484 -0.331113 1.174859 11 41 41
-0.587479 -0.331029 1.174851 236 244 244
-0.587479 -0.331029 1.174851 236 244 244
-0.587481 -0.331069 1.174855 34 39 36
-0.587481 -0.331060 1.174854 20 55 51
-0.587481 -0.331061 1.174854 192 196 195
-0.587481 -0.331061 1.174854 192 196 195
-0.587481 -0.331063 1.174854 120 228 232
-0.587481 -0.331063 1.174854 48 55 59
-0.587482 -0.331087 1.174857 81 134 131
-0.587482 -0.331087 1.174857 81 134 131
-0.587481 -0.331060 1.174854 48 60 59
-0.587481 -0.331057 1.174854 193 189 181
-0.587484 -0.331118 1.174860 71 91 87
-0.587484 -0.331118 1.174860 71 91 87
-0.587484 -0.331123 1.174861 75 102 99
-0.587480 -0.331039 1.174852 132 240 240
-0.587480 -0.331039 1.174852 132 240 240
-0.587481 -0.331065 1.174855 253 254 255
-0.587483 -0.331092 1.174858 28 44 43
-0.587481 -0.331067 1.174855 140 215 212
-0.587481 -0.331059 1.174855 48 52 51
-0.587481 -0.331063 1.174855 50 74 81
-0.587481 -0.331063 1.174855 50 74 81
-0.587483 -0.331103 1.174859 39 40 38
-0.587481 -0.331061 1.174855 154 158 157
-0.587481 -0.331056 1.174855 131 151 151
-0.587481 -0.331058 1.174855 38 33 29
-0.587479 -0.331021 1.174851 7 33 34
-0.587481 -0.331068 1.174856 131 208 206
-0.587481 -0.331057 1.174855 128 131 128
-0.587481 -0.331060 1.174855 132 137 138
-0.587483 -0.331091 1.174859 93 157 156
-0.587483 -0.331091 1.174859 123 209 209
-0.587482 -0.331088 1.174858 16 36 36
-0.587482 -0.331088 1.174858 16 36 36
-0.587482 -0.331090 1.174859 124 179 178
-0.587482 -0.331090 1.174859 124 179 178
-0.587481 -0.331057 1.174855 165 180 177
-0.587479 -0.331028 1.174852 47 50 51
-0.587479 -0.331028 1.174852 47 50 51
-0.587481 -0.331056 1.174855 131 169 166
-0.587481 -0.331056 1.174855 131 169 166
-0.587481 -0.331063 1.174856 164 230 237
-0.587481 -0.331058 1.174856 154 181 178
-0.587481 -0.331062 1.174856 123 228 234
-0.587481 -0.331064 1.174857 223 255 255
-0.587481 -0.331059 1.174856 25 34 38
-0.587481 -0.331066 1.174857 68 89 91
-0.587483 -0.331104 1.174861 68 70 69
-0.587481 -0.331068 1.174857 41 52 50
-0.587481 -0.331068 1.174857 41 52 50
-0.587483 -0.331091 1.174859 7 39 39
-0.587483 -0.331091 1.174859 7 39 39
-0.587481 -0.331056 1.174856 20 45 42
-0.587482 -0.331087 1.174859 76 137 135
-0.587481 -0.331057 1.174856 36 55 53
-0.587483 -0.331102 1.174861 121 121 121
-0.587484 -0.331115 1.174862 83 126 130
-0.587481 -0.331059 1.174856 165 202 205
-0.587481 -0.331059 1.174856 165 202 205
-0.587481 -0.331061 1.174857 194 223 226
-0.587483 -0.331104 1.174861 250 252 251
-0.587480 -0.331035 1.174854 132 215 217
-0.587481 -0.331056 1.174857 133 143 145
-0.587481 -0.331063 1.174857 51 113 117
-0.587481 -0.331064 1.174858 170 238 245
-0.587481 -0.331059 1.174857 12 63 60
-0.587480 -0.331033 1.174854 40 40 40
-0.587481 -0.331057 1.174857 39 77 72
-0.587483 -0.331088 1.174860 10 29 27
-0.587484 -0.331123 1.174864 68 90 90
-0.587483 -0.331102 1.174862 85 85 85
-0.587481 -0.331058 1.174858 139 184 185
-0.587480 -0.331037 1.174855 43 76 86
-0.587481 -0.331059 1.174858 43 59 60
-0.587481 -0.331064 1.174858 239 255 255
-0.587482 -0.331087 1.174861 26 29 26
-0.587482 -0.331085 1.174861 0 38 36
-0.587481 -0.331061 1.174858 52 65 68
-0.587481 -0.331064 1.174859 111 163 164
-0.587483 -0.331099 1.174862 173 172 170
-0.587483 -0.331105 1.174863 59 61 60
-0.587483 -0.331102 1.174863 232 230 230
-0.587481 -0.331060 1.174858 177 183 182
-0.587481 -0.331060 1.174858 177 183 182
-0.587480 -0.331038 1.174856 137 235 235
-0.587484 -0.331118 1.174864 82 130 130
-0.587481 -0.331058 1.174859 163 207 209
-0.587481 -0.331058 1.174859 163 207 209
-0.587481 -0.331062 1.174859 124 206 206
-0.587481 -0.331066 1.174859 50 69 69
-0.587483 -0.331102 1.174863 67 65 65
-0.587481 -0.331063 1.174859 71 119 120
-0.587481 -0.331063 1.174859 71 119 120
-0.587481 -0.331061 1.174859 67 70 73
-0.587481 -0.331062 1.174859 173 221 222
-0.587480 -0.331030 1.174856 118 206 207
-0.587480 -0.331030 1.174856 118 206 207
-0.587483 -0.331090 1.174862 19 41 39
-0.587481 -0.331058 1.174859 42 56 57
-0.587481 -0.331058 1.174859 42 56 57
-0.587481 -0.331065 1.174860 55 82 83
-0.587481 -0.331065 1.174860 55 82 83
-0.587483 -0.331100 1.174864 117 116 114
-0.587483 -0.331100 1.174864 117 116 114
-0.587480 -0.331038 1.174857 119 234 235
-0.587480 -0.331039 1.174858 63 66 69
-0.587483 -0.331091 1.174863 101 155 157
-0.587484 -0.331105 1.174865 76 78 77
-0.587479 -0.331027 1.174856 33 36 37
-0.587484 -0.331121 1.174867 48 85 84
-0.587483 -0.331090 1.174863 66 127 125
-0.587480 -0.331041 1.174858 188 186 186
-0.587481 -0.331058 1.174860 45 46 47
-0.587481 -0.331064 1.174861 248 255 255
-0.587481 -0.331064 1.174861 248 255 255
-0.587481 -0.331061 1.174860 165 218 225
-0.587481 -0.331059 1.174860 251 254 255
-0.587482 -0.331066 1.174861 58 80 80
-0.587482 -0.331067 1.174862 47 53 52
-0.587484 -0.331106 1.174866 96 96 96
-0.587481 -0.331060 1.174861 71 63 66
-0.587483 -0.331093 1.174865 102 163 161
-0.587481 -0.331062 1.174862 157 227 231
-0.587481 -0.331062 1.174862 167 255 255
-0.587483 -0.331096 1.174865 25 26 27
-0.587484 -0.331120 1.174868 63 96 100
-0.587484 -0.331120 1.174868 63 96 100
-0.587482 -0.331067 1.174863 125 222 220
-0.587480 -0.331035 1.174859 111 226 225
-0.587480 -0.331035 1.174859 111 226 225
-0.587481 -0.331061 1.174862 148 227 225
-0.587481 -0.331061 1.174862 148 227 225
-0.587482 -0.331065 1.174863 56 66 68
-0.587483 -0.331095 1.174865 33 41 43
-0.587481 -0.331063 1.174862 242 255 255
-0.587483 -0.331095 1.174865 133 167 167
-0.587483 -0.331095 1.174865 133 167 167
-0.587480 -0.331032 1.174860 111 197 192
-0.587484 -0.331104 1.174867 204 202 202
-0.587482 -0.331065 1.174863 180 221 216
-0.587483 -0.331084 1.174865 44 56 55
-0.587482 -0.331064 1.174863 115 148 146
-0.587484 -0.331104 1.174867 75 72 70
-0.587482 -0.331067 1.174864 33 55 53
-0.587480 -0.331031 1.174860 26 41 44
-0.587480 -0.331028 1.174860 92 166 165
-0.587483 -0.331096 1.174867 117 161 163
-0.587480 -0.331025 1.174860 57 140 144
-0.587480 -0.331025 1.174860 57 140 144
-0.587481 -0.331058 1.174863 45 47 46
-0.587480 -0.331037 1.174861 26 65 68
-0.587480 -0.331037 1.174861 26 65 68
-0.587482 -0.331062 1.174864 231 252 254
-0.587484 -0.331112 1.174869 107 110 111
-0.587483 -0.331088 1.174866 1 35 35
-0.587483 -0.331093 1.174867 9 37 36
-0.587483 -0.331093 1.174867 9 37 36
-0.587482 -0.331064 1.174864 176 215 212
-0.587482 -0.331063 1.174864 203 248 246
-0.587482 -0.331063 1.174864 203 248 246
-0.587483 -0.331096 1.174867 115 157 158
-0.587480 -0.331039 1.174862 56 64 66
-0.587480 -0.331039 1.174862 56 64 66
-0.587485 -0.331121 1.174870 19 23 22
-0.587483 -0.331097 1.174868 137 197 203
-0.587483 -0.331097 1.174868 137 197 203
-0.587481 -0.331052 1.174863 28 30 29
-0.587483 -0.331097 1.174868 34 42 42
-0.587481 -0.331057 1.174864 252 249 251
-0.587483 -0.331093 1.174868 74 138 133
-0.587483 -0.331094 1.174868 89 136 132
-0.587483 -0.331092 1.174868 5 34 29
-0.587482 -0.331061 1.174865 228 230 229
-0.587482 -0.331061 1.174865 228 230 229
-0.587482 -0.331064 1.174865 177 210 208
-0.587482 -0.331064 1.174865 227 255 254
-0.587483 -0.331089 1.174868 61 94 92
-0.587480 -0.331028 1.174861 17 43 44
-0.587481 -0.331044 1.174863 187 190 191
-0.587481 -0.331044 1.174863 187 190 191
-0.587484 -0.331101 1.174869 35 36 34
-0.587480 -0.331038 1.174863 24 60 72
-0.587480 -0.331038 1.174863 24 60 72
-0.587483 -0.331086 1.174868 37 64 61
-0.587480 -0.331036 1.174863 29 50 60
-0.587480 -0.331036 1.174863 29 50 60
-0.587481 -0.331049 1.174864 33 70 69
-0.587484 -0.331104 1.174870 58 56 56
-0.587483 -0.331095 1.174869 107 153 149
-0.587483 -0.331096 1.174869 104 173 170
-0.587483 -0.331096 1.174869 104 173 170
-0.587482 -0.331064 1.174866 66 68 67
-0.587483 -0.331096 1.174870 0 41 39
-0.587482 -0.331071 1.174867 47 47 47
-0.587483 -0.331094 1.174870 76 119 117
-0.587483 -0.331095 1.174870 95 140 138
-0.587483 -0.331095 1.174870 95 140 138
-0.587480 -0.331029 1.174863 112 180 185
-0.587480 -0.331029 1.174863 112 180 185
-0.587482 -0.331061 1.174866 35 37 36
-0.587481 -0.331053 1.174866 77 115 112
-0.587481 -0.331052 1.174865 84 132 133
-0.587481 -0.331052 1.174866 20 58 57
-0.587482 -0.331069 1.174868 103 104 102
-0.587482 -0.331063 1.174867 142 239 237
-0.587482 -0.331063 1.174867 142 239 237
-0.587483 -0.331090 1.174870 22 26 25
-0.587481 -0.331053 1.174866 17 54 53
-0.587481 -0.331039 1.174865 136 232 238
-0.587480 -0.331027 1.174864 34 37 38
-0.587482 -0.331065 1.174868 139 183 184
-0.587484 -0.331105 1.174872 255 255 255
-0.587484 -0.331105 1.174872 255 255 255
-0.587480 -0.331028 1.174864 106 202 208
-0.587482 -0.331058 1.174867 254 255 255
-0.587483 -0.331095 1.174871 91 119 118
-0.587483 -0.331095 1.174871 91 119 118
-0.587480 -0.331036 1.174865 127 241 244
-0.587481 -0.331047 1.174866 11 37 41
-0.587480 -0.331034 1.174865 46 48 47
-0.587482 -0.331064 1.174868 36 55 57
-0.587482 -0.331064 1.174868 36 55 57
-0.587484 -0.331099 1.174872 28 26 26
-0.587482 -0.331058 1.174868 49 51 50
-0.587482 -0.331072 1.174869 203 205 204
-0.587480 -0.331029 1.174865 40 41 50
-0.587481 -0.331053 1.174867 126 190 185
-0.587482 -0.331065 1.174869 170 230 231
-0.587482 -0.331058 1.174868 184 185 186
-0.587482 -0.331058 1.174868 184 185 186
-0.587483 -0.331091 1.174872 57 79 77
-0.587483 -0.331091 1.174872 57 79 77
-0.587481 -0.331051 1.174868 19 20 21
-0.587482 -0.331065 1.174869 38 41 42
-0.587482 -0.331060 1.174869 149 228 226
-0.587482 -0.331060 1.174869 149 228 226
-0.587484 -0.331100 1.174873 117 170 177
-0.587483 -0.331093 1.174872 83 108 107
-0.587481 -0.331054 1.174868 24 51 52
-0.587484 -0.331101 1.174873 28 38 38
-0.587481 -0.331040 1.174867 66 84 86
-0.587480 -0.331032 1.174867 17 43 54
-0.587480 -0.331032 1.174867 17 43 54
-0.587481 -0.331046 1.174868 242 249 253
-0.587482 -0.331065 1.174870 150 235 237
-0.587482 -0.331065 1.174870 150 235 237
-0.587484 -0.331101 1.174874 8 33 32
-0.587483 -0.331074 1.174871 48 46 46
-0.587481 -0.331038 1.174868 67 88 98
-0.587482 -0.331056 1.174869 115 211 213
-0.587481 -0.331045 1.174868 27 30 33
-0.587481 -0.331046 1.174868 28 31 34
-0.587480 -0.331015 1.174865 14 14 14
-0.587480 -0.331015 1.174865 14 14 14
-0.587480 -0.331015 1.174865 14 14 14
-0.587483 -0.331072 1.174871 254 253 255
-0.587483 -0.331090 1.174873 41 67 68
-0.587482 -0.331060 1.174870 150 230 231
-0.587484 -0.331101 1.174875 25 30 31
-0.587482 -0.331061 1.174870 146 237 233
-0.587484 -0.331101 1.174875 81 84 85
-0.587480 -0.331033 1.174868 102 217 216
-0.587480 -0.331029 1.174867 32 51 53
-0.587480 -0.331029 1.174867 32 51 53
-0.587480 -0.331029 1.174867 221 221 221
-0.587482 -0.331064 1.174871 37 62 59
-0.587481 -0.331045 1.174869 106 109 106
-0.587482 -0.331060 1.174871 48 53 56
-0.587482 -0.331055 1.174870 34 37 40
-0.587482 -0.331054 1.174871 25 25 25
-0.587482 -0.331063 1.174872 166 220 222
-0.587482 -0.331057 1.174871 138 141 142
-0.587482 -0.331057 1.174871 138 141 142
-0.587484 -0.331102 1.174875 116 154 153
-0.587482 -0.331059 1.174871 111 187 188
-0.587482 -0.331060 1.174871 141 197 197
-0.587482 -0.331061 1.174872 207 255 255
-0.587484 -0.331102 1.174876 117 149 149
-0.587481 -0.331046 1.174870 199 207 209
-0.587482 -0.331064 1.174873 47 49 48
-0.587484 -0.331107 1.174877 254 255 255
-0.587484 -0.331102 1.174876 0 34 31
-0.587482 -0.331061 1.174872 74 103 107
-0.587482 -0.331060 1.174872 161 211 217
-0.587481 -0.331046 1.174871 38 45 49
-0.587482 -0.331063 1.174873 128 242 237
-0.587482 -0.331063 1.174873 128 242 237
-0.587481 -0.331050 1.174871 31 68 70
-0.587485 -0.331121 1.174879 109 112 113
-0.587484 -0.331100 1.174876 5 51 47
-0.587481 -0.331038 1.174870 223 255 255
-0.587482 -0.331060 1.174873 29 82 87
-0.587482 -0.331063 1.174873 45 48 49
-0.587481 -0.331041 1.174871 254 255 255
-0.587481 -0.331031 1.174870 30 36 35
-0.587480 -0.331027 1.174870 50 51 52
-0.587482 -0.331060 1.174873 118 196 197
-0.587482 -0.331062 1.174873 240 250 252
-0.587482 -0.331058 1.174873 44 47 50
-0.587482 -0.331062 1.174873 240 250 252
-0.587484 -0.331099 1.174877 106 139 137
-0.587484 -0.331099 1.174877 106 139 137
-0.587483 -0.331075 1.174875 178 178 178
-0.587484 -0.331103 1.174878 19 31 30
-0.587482 -0.331057 1.174873 21 24 25
-0.587481 -0.331036 1.174871 139 242 253
-0.587482 -0.331063 1.174874 151 255 254
-0.587484 -0.331104 1.174878 32 34 33
-0.587482 -0.331062 1.174874 47 64 69
-0.587481 -0.331034 1.174871 40 42 47
-0.587484 -0.331103 1.174879 18 33 36
-0.587481 -0.331038 1.174872 160 239 244
-0.587484 -0.331107 1.174879 155 152 150
-0.587482 -0.331061 1.174875 29 75 81
-0.587482 -0.331064 1.174875 25 39 38
-0.587482 -0.331059 1.174874 154 222 222
-0.587485 -0.331120 1.174881 235 247 253
-0.587480 -0.331027 1.174871 39 44 45
-0.587480 -0.331026 1.174871 66 145 150
-0.587484 -0.331103 1.174879 0 30 33
-0.587480 -0.331029 1.174872 141 164 168
-0.587481 -0.331031 1.174872 135 218 220
-0.587481 -0.331031 1.174872 135 218 220
-0.587484 -0.331103 1.174880 103 147 148
-0.587482 -0.331062 1.174876 28 82 84
-0.587484 -0.331104 1.174880 1 43 45
-0.587482 -0.331059 1.174876 30 44 50
-0.587482 -0.331062 1.174876 109 170 169
-0.587482 -0.331060 1.174876 156 215 219
-0.587483 -0.331066 1.174876 131 134 135
-0.587485 -0.331119 1.174882 238 250 255
-0.587485 -0.331119 1.174882 238 250 255
-0.587483 -0.331066 1.174876 109 112 113
-0.587484 -0.331101 1.174880 78 132 127
-0.587483 -0.331068 1.174877 190 193 194
-0.587483 -0.331068 1.174877 190 193 194
-0.587481 -0.331040 1.174874 42 42 42
-0.587481 -0.331035 1.174874 122 176 178
-0.587484 -0.331102 1.174881 5 32 31
-0.587484 -0.331103 1.174881 115 153 152
-0.587483 -0.331072 1.174878 106 101 97
-0.587485 -0.331121 1.174883 109 112 113
-0.587482 -0.331063 1.174877 138 201 202
-0.587485 -0.331121 1.174883 108 111 112
-0.587481 -0.331034 1.174874 162 208 204
-0.587481 -0.331030 1.174874 41 44 45
-0.587483 -0.331070 1.174878 255 253 255
-0.587483 -0.331070 1.174878 255 253 255
-0.587482 -0.331063 1.174877 74 74 74
-0.587482 -0.331062 1.174877 215 241 245
-0.587485 -0.331118 1.174883 154 164 166
-0.587483 -0.331068 1.174878 238 239 242
-0.587484 -0.331103 1.174882 87 136 133
-0.587485 -0.331108 1.174882 37 37 37
-0.587485 -0.331105 1.174882 32 34 39
-0.587485 -0.331107 1.174882 30 33 34
-0.587482 -0.331061 1.174878 176 222 228
-0.587482 -0.331063 1.174878 40 46 45
-0.587485 -0.331107 1.174882 187 213 214
-0.587481 -0.331028 1.174874 82 86 85
-0.587481 -0.331034 1.174875 82 115 111
-0.587481 -0.331034 1.174875 82 115 111
-0.587482 -0.331060 1.174878 122 155 158
-0.587482 -0.331062 1.174878 250 255 255
-0.587481 -0.331031 1.174875 33 42 46
-0.587481 -0.331028 1.174875 18 26 26
-0.587482 -0.331045 1.174877 93 94 92
-0.587483 -0.331067 1.174879 150 149 151
-0.587485 -0.331103 1.174883 13 33 38
-0.587483 -0.331062 1.174879 62 65 66
-0.587484 -0.331087 1.174881 23 26 23
-0.587484 -0.331087 1.174881 23 26 23
-0.587481 -0.331035 1.174876 123 135 134
-0.587481 -0.331030 1.174875 81 83 82
-0.587485 -0.331111 1.174884 107 119 120
-0.587483 -0.331071 1.174880 91 90 88
-0.587483 -0.331069 1.174880 148 147 149
-0.587485 -0.331112 1.174884 104 116 122
-0.587481 -0.331034 1.174876 187 201 200
-0.587481 -0.331034 1.174876 160 203 201
-0.587481 -0.331034 1.174876 160 203 201
-0.587485 -0.331112 1.174884 84 105 107
-0.587482 -0.331061 1.174879 125 161 164
-0.587485 -0.331103 1.174883 76 147 145
-0.587483 -0.331062 1.174879 168 235 244
-0.587483 -0.331075 1.174881 88 88 88
-0.587485 -0.331102 1.174884 25 33 33
-0.587483 -0.331065 1.174880 46 47 45
-0.587483 -0.331065 1.174880 46 47 45
-0.587483 -0.331067 1.174880 255 254 254
-0.587482 -0.331050 1.174879 251 254 255
-0.587481 -0.331037 1.174877 46 118 122
-0.587483 -0.331066 1.174880 76 76 76
-0.587485 -0.331115 1.174886 146 151 154
-0.587485 -0.331114 1.174886 233 247 253
-0.587482 -0.331051 1.174879 103 106 107
-0.587481 -0.331038 1.174878 155 206 203
-0.587482 -0.331046 1.174879 31 29 29
-0.587485 -0.331113 1.174886 165 183 188
-0.587483 -0.331062 1.174881 23 49 50
-0.587482 -0.331045 1.174879 89 89 89
-0.587487 -0.331156 1.174891 224 239 250
-0.587487 -0.331156 1.174891 224 239 250
-0.587481 -0.331041 1.174879 253 250 248
-0.587481 -0.331041 1.174879 253 250 248
-0.587481 -0.331039 1.174879 45 51 50
-0.587481 -0.331035 1.174878 43 51 51
-0.587481 -0.331035 1.174878 43 51 51
-0.587485 -0.331110 1.174886 94 106 112
-0.587483 -0.331069 1.174882 47 45 45
-0.587485 -0.331116 1.174887 109 112 113
-0.587485 -0.331113 1.174887 67 80 83
-0.587483 -0.331069 1.174883 97 95 95
-0.587485 -0.331112 1.174887 240 254 255
-0.587485 -0.331112 1.174887 240 254 255
-0.587484 -0.331095 1.174885 77 96 96
-0.587485 -0.331106 1.174887 19 37 39
-0.587485 -0.331100 1.174886 61 99 96
-0.587485 -0.331110 1.174887 98 127 131
-0.587482 -0.331050 1.174881 16 21 24
-0.587481 -0.331037 1.174880 42 79 87
-0.587482 -0.331045 1.174881 125 114 110
-0.587485 -0.331097 1.174886 24 32 32
-0.587485 -0.331098 1.174886 41 63 61
-0.587485 -0.331098 1.174886 41 63 61
-0.587483 -0.331064 1.174883 194 196 195
-0.587485 -0.331100 1.174887 57 84 83
-0.587483 -0.331069 1.174884 98 99 97
-0.587481 -0.331039 1.174881 136 186 186
-0.587482 -0.331044 1.174882 83 75 71
-0.587483 -0.331068 1.174885 255 255 255
-0.587483 -0.331068 1.174885 255 255 255
-0.587481 -0.331037 1.174881 170 238 243
-0.587483 -0.331069 1.174885 73 74 72
-0.587481 -0.331034 1.174881 19 23 22
-0.587483 -0.331067 1.174885 32 35 32
-0.587483 -0.331067 1.174885 32 35 32
-0.587483 -0.331075 1.174886 48 50 49
-0.587486 -0.331122 1.174891 120 122 121
-0.587486 -0.331122 1.174891 120 122 121
-0.587483 -0.331067 1.174885 35 36 34
-0.587483 -0.331067 1.174885 35 36 34
-0.587483 -0.331059 1.174885 103 104 105
-0.587481 -0.331025 1.174881 19 21 20
-0.587482 -0.331041 1.174883 88 88 88
-0.587485 -0.331100 1.174889 53 65 64
-0.587482 -0.331040 1.174883 47 57 57
-0.587482 -0.331047 1.174884 86 87 88
-0.587483 -0.331062 1.174885 27 30 27
-0.587482 -0.331052 1.174885 82 86 85
-0.587482 -0.331051 1.174885 166 170 169
-0.587482 -0.331052 1.174885 111 116 117
-0.587485 -0.331105 1.174890 86 129 133
-0.587484 -0.331074 1.174887 70 71 72
-0.587485 -0.331110 1.174891 117 148 151
-0.587483 -0.331069 1.174887 63 61 61
-0.587485 -0.331111 1.174891 108 115 112
-0.587482 -0.331038 1.174884 12 37 44
-0.587485 -0.331104 1.174891 23 50 51
-0.587485 -0.331104 1.174891 23 50 51
-0.587486 -0.331117 1.174892 86 96 96
-0.587482 -0.331043 1.174885 120 121 119
-0.587486 -0.331117 1.174893 111 115 114
-0.587486 -0.331117 1.174893 111 115 114
-0.587485 -0.331109 1.174892 30 45 48
-0.587482 -0.331040 1.174885 195 234 236
-0.587482 -0.331040 1.174885 195 234 236
-0.587485 -0.331108 1.174892 139 175 178
-0.587485 -0.331104 1.174892 61 99 96
-0.587485 -0.331104 1.174892 65 106 103
-0.587483 -0.331059 1.174888 27 29 28
-0.587483 -0.331059 1.174888 27 29 28
-0.587482 -0.331039 1.174886 12 58 70
-0.587483 -0.331068 1.174889 255 255 255
-0.587483 -0.331068 1.174889 255 255 255
-0.587483 -0.331067 1.174889 59 59 59
-0.587483 -0.331069 1.174889 179 180 181
-0.587483 -0.331052 1.174887 25 28 29
-0.587483 -0.331069 1.174889 32 33 34
-0.587483 -0.331052 1.174888 22 25 26
-0.587483 -0.331052 1.174888 22 25 26
-0.587485 -0.331109 1.174894 164 238 245
-0.587482 -0.331042 1.174887 217 219 218
-0.587482 -0.331042 1.174887 217 219 218
-0.587484 -0.331074 1.174890 153 151 151
-0.587485 -0.331105 1.174894 25 34 38
-0.587481 -0.331028 1.174886 215 240 239
-0.587481 -0.331028 1.174886 215 240 239
-0.587485 -0.331098 1.174894 111 125 124
-0.587484 -0.331074 1.174891 114 114 114
-0.587484 -0.331074 1.174891 114 114 114
-0.587485 -0.331107 1.174895 57 62 63
-0.587485 -0.331105 1.174895 198 208 210
-0.587484 -0.331071 1.174891 111 109 109
-0.587486 -0.331109 1.174895 157 202 203
-0.587482 -0.331037 1.174888 41 61 61
-0.587485 -0.331106 1.174895 239 248 252
-0.587486 -0.331108 1.174895 54 58 57
-0.587484 -0.331069 1.174891 64 64 64
-0.587482 -0.331046 1.174889 113 117 116
-0.587484 -0.331071 1.174892 168 170 169
-0.587485 -0.331105 1.174896 59 67 69
-0.587484 -0.331070 1.174892 25 25 25
-0.587485 -0.331106 1.174896 170 179 183
-0.587486 -0.331109 1.174896 90 136 134
-0.587487 -0.331128 1.174898 239 251 255
-0.587486 -0.331109 1.174896 35 62 61
-0.587486 -0.331109 1.174896 35 62 61
-0.587486 -0.331110 1.174897 158 210 211
-0.587485 -0.331099 1.174896 25 33 35
-0.587486 -0.331109 1.174897 142 182 181
-0.587486 -0.331109 1.174897 178 204 205
-0.587486 -0.331110 1.174898 34 71 73
-0.587486 -0.331110 1.174898 34 71 73
-0.587485 -0.331100 1.174897 133 151 156
-0.587487 -0.331124 1.174899 109 113 112
-0.587486 -0.331110 1.174898 196 223 224
-0.587483 -0.331064 1.174893 100 102 101
-0.587483 -0.331064 1.174893 100 102 101
-0.587486 -0.331107 1.174898 42 43 44
-0.587486 -0.331110 1.174899 26 53 54
-0.587487 -0.331126 1.174901 233 250 255
-0.587484 -0.331073 1.174895 43 41 41
-0.587486 -0.331109 1.174899 176 207 210
-0.587484 -0.331073 1.174895 117 115 115
-0.587484 -0.331073 1.174895 117 115 115
-0.587482 -0.331036 1.174891 20 22 21
-0.587486 -0.331109 1.174899 235 255 255
-0.587485 -0.331102 1.174899 214 218 217
-0.587486 -0.331111 1.174899 39 69 69
-0.587486 -0.331111 1.174899 123 179 179
-0.587484 -0.331073 1.174896 121 119 119
-0.587484 -0.331073 1.174896 121 119 119
-0.587486 -0.331111 1.174900 162 194 194
-0.587485 -0.331102 1.174899 46 48 47
-0.587486 -0.331110 1.174900 73 95 95
-0.587487 -0.331125 1.174902 215 238 242
-0.587487 -0.331125 1.174902 215 238 242
-0.587487 -0.331126 1.174903 114 116 121
-0.587486 -0.331112 1.174901 120 178 178
-0.587487 -0.331121 1.174903 111 114 115
-0.587487 -0.331125 1.174903 87 92 95
-0.587486 -0.331112 1.174902 57 71 72
-0.587485 -0.331098 1.174901 246 255 255
-0.587485 -0.331098 1.174901 246 255 255
-0.587483 -0.331040 1.174895 95 95 95
-0.587487 -0.331124 1.174904 87 93 100
-0.587487 -0.331124 1.174904 87 93 100
-0.587483 -0.331043 1.174896 20 20 20
-0.587483 -0.331044 1.174896 21 21 21
-0.587486 -0.331099 1.174903 30 32 31
-0.587485 -0.331096 1.174902 195 196 197
-0.587482 -0.331034 1.174896 23 26 23
-0.587486 -0.331107 1.174904 35 37 36
-0.587486 -0.331107 1.174904 35 37 36
-0.587486 -0.331113 1.174905 221 252 255
-0.587486 -0.331099 1.174904 83 86 87
-0.587487 -0.331114 1.174906 96 112 111
-0.587486 -0.331106 1.174906 215 218 219
-0.587486 -0.331109 1.174906 197 200 201
-0.587487 -0.331117 1.174907 96 104 106
-0.587483 -0.331047 1.174900 35 41 48
-0.587486 -0.331103 1.174906 31 30 32
-0.587486 -0.331111 1.174906 38 54 55
-0.587486 -0.331109 1.174907 69 72 73
-0.587483 -0.331039 1.174900 35 45 47
-0.587487 -0.331116 1.174907 102 113 116
-0.587486 -0.331109 1.174907 60 63 64
-0.587486 -0.331100 1.174906 83 87 86
-0.587486 -0.331110 1.174907 35 40 41
-0.587487 -0.331120 1.174908 117 120 121
-0.587484 -0.331064 1.174903 147 148 149
-0.587487 -0.331114 1.174909 51 67 68
-0.587483 -0.331034 1.174901 75 77 76
-0.587483 -0.331049 1.174902 41 43 42
-0.587483 -0.331044 1.174902 186 195 199
-0.587483 -0.331044 1.174902 186 195 199
-0.587483 -0.331048 1.174903 237 242 243
-0.587486 -0.331109 1.174909 220 234 235
-0.587487 -0.331116 1.174910 243 255 255
-0.587483 -0.331038 1.174902 30 36 43
-0.587487 -0.331110 1.174909 25 30 31
-0.587486 -0.331104 1.174909 29 31 30
-0.587483 -0.331039 1.174902 246 255 255
-0.587483 -0.331039 1.174902 246 255 255
-0.587487 -0.331122 1.174911 114 115 116
-0.587487 -0.331123 1.174911 127 128 129
-0.587487 -0.331111 1.174910 40 52 53
-0.587487 -0.331124 1.174912 120 121 122
-0.587483 -0.331041 1.174903 29 29 29
-0.587487 -0.331115 1.174911 232 250 252
-0.587487 -0.331117 1.174911 241 255 255
-0.587487 -0.331110 1.174911 84 94 96
-0.587486 -0.331093 1.174909 114 116 115
-0.587486 -0.331091 1.174909 178 179 180
-0.587487 -0.331108 1.174911 30 31 32
-0.587487 -0.331123 1.174912 32 35 36
-0.587487 -0.331124 1.174913 145 148 149
-0.587487 -0.331115 1.174912 115 118 119
-0.587484 -0.331061 1.174906 25 28 29
-0.587484 -0.331061 1.174906 25 28 29
-0.587484 -0.331049 1.174905 48 53 56
-0.587486 -0.331103 1.174911 42 43 44
-0.587486 -0.331090 1.174910 204 206 205
-0.587486 -0.331105 1.174912 113 114 115
-0.587487 -0.331111 1.174912 169 177 179
-0.587486 -0.331096 1.174911 29 32 33
-0.587487 -0.331119 1.174913 40 56 57
-0.587483 -0.331045 1.174906 37 51 58
-0.587483 -0.331047 1.174906 230 245 248
-0.587484 -0.331060 1.174908 202 219 227
-0.587487 -0.331125 1.174914 32 34 33
-0.587484 -0.331061 1.174908 113 121 123
-0.587486 -0.331103 1.174912 126 128 127
-0.587486 -0.331096 1.174911 232 234 233
-0.587486 -0.331096 1.174911 232 234 233
-0.587483 -0.331041 1.174906 81 81 81
-0.587487 -0.331111 1.174913 38 47 51
-0.587486 -0.331089 1.174911 182 182 182
-0.587487 -0.331114 1.174914 187 195 195
-0.587487 -0.331110 1.174914 53 57 62
-0.587486 -0.331089 1.174911 185 185 185
-0.587484 -0.331061 1.174909 254 255 255
-0.587486 -0.331100 1.174913 211 211 211
-0.587487 -0.331108 1.174914 116 119 120
-0.587484 -0.331061 1.174909 168 189 199
-0.587488 -0.331133 1.174916 67 72 73
-0.587487 -0.331123 1.174915 156 161 164
-0.587487 -0.331117 1.174915 80 85 88
-0.587487 -0.331107 1.174914 116 117 118
-0.587484 -0.331062 1.174909 91 101 103
-0.587488 -0.331124 1.174916 38 46 48
-0.587487 -0.331121 1.174916 132 146 152
-0.587484 -0.331061 1.174910 151 167 178
-0.587485 -0.331082 1.174912 254 255 255
-0.587485 -0.331082 1.174912 254 255 255
-0.587487 -0.331122 1.174916 212 222 224
-0.587487 -0.331102 1.174915 248 248 248
-0.587484 -0.331060 1.174911 30 34 39
-0.587487 -0.331111 1.174916 142 154 155
-0.587487 -0.331111 1.174916 142 154 155
-0.587487 -0.331117 1.174917 129 132 133
-0.587485 -0.331082 1.174913 52 55 52
-0.587487 -0.331107 1.174916 126 127 128
-0.587487 -0.331112 1.174916 42 45 46
-0.587488 -0.331124 1.174918 147 166 166
-0.587488 -0.331122 1.174918 244 253 255
-0.587487 -0.331112 1.174917 192 204 205
-0.587487 -0.331119 1.174917 171 191 197
-0.587484 -0.331043 1.174910 96 99 100
-0.587487 -0.331115 1.174917 139 142 143
-0.587487 -0.331113 1.174917 50 53 54
-0.587485 -0.331081 1.174914 253 255 254
-0.587485 -0.331081 1.174914 253 255 254
-0.587487 -0.331118 1.174918 59 64 65
-0.587487 -0.331115 1.174918 143 145 144
-0.587487 -0.331115 1.174918 143 145 144
-0.587488 -0.331123 1.174919 72 91 93
-0.587487 -0.331112 1.174918 47 50 51
-0.587487 -0.331112 1.174917 125 135 137
-0.587485 -0.331063 1.174913 35 35 35
-0.587484 -0.331056 1.174912 28 27 29
-0.587485 -0.331080 1.174915 254 255 255
-0.587487 -0.331102 1.174917 54 52 52
-0.587485 -0.331080 1.174915 247 248 249
-0.587485 -0.331080 1.174915 247 248 249
-0.587487 -0.331112 1.174918 228 236 238
-0.587485 -0.331062 1.174913 250 255 255
-0.587485 -0.331062 1.174913 250 255 255
-0.587487 -0.331105 1.174918 68 71 72
-0.587485 -0.331079 1.174915 247 248 249
-0.587487 -0.331105 1.174918 101 106 107
-0.587487 -0.331101 1.174917 253 255 254
-0.587488 -0.331123 1.174919 89 108 110
-0.587485 -0.331080 1.174915 75 76 77
-0.587487 -0.331105 1.174918 251 251 251
-0.587487 -0.331105 1.174918 251 251 251
-0.587488 -0.331136 1.174921 73 74 75
-0.587489 -0.331156 1.174923 117 119 118
-0.587489 -0.331156 1.174923 117 119 118
-0.587483 -0.331039 1.174911 62 72 79
-0.587487 -0.331105 1.174918 46 51 52
-0.587486 -0.331081 1.174916 55 57 56
-0.587488 -0.331123 1.174920 187 205 210
-0.587488 -0.331123 1.174920 187 205 210
-0.587487 -0.331114 1.174920 104 105 106
-0.587487 -0.331114 1.174920 104 105 106
-0.587488 -0.331122 1.174921 231 240 244
-0.587485 -0.331073 1.174916 188 189 190
-0.587485 -0.331073 1.174916 188 189 190
-0.587487 -0.331112 1.174920 107 115 117
-0.587487 -0.331112 1.174920 107 115 117
-0.587487 -0.331106 1.174920 241 246 247
-0.587487 -0.331106 1.174920 241 246 247
-0.587487 -0.331102 1.174919 95 97 96
-0.587488 -0.331131 1.174923 43 43 43
-0.587485 -0.331073 1.174917 185 188 189
-0.587486 -0.331082 1.174918 68 68 68
-0.587484 -0.331050 1.174915 92 93 94
-0.587484 -0.331046 1.174914 79 81 80
-0.587485 -0.331059 1.174916 31 32 33
-0.587485 -0.331063 1.174916 40 43 46
-0.587485 -0.331059 1.174916 83 84 85
-0.587486 -0.331082 1.174919 255 255 255
-0.587486 -0.331082 1.174919 255 255 255
-0.587484 -0.331055 1.174916 59 60 61
-0.587485 -0.331063 1.174917 39 42 43
-0.587485 -0.331063 1.174917 39 42 43
-0.587484 -0.331051 1.174916 84 85 86
-0.587489 -0.331149 1.174926 93 93 93
-0.587485 -0.331057 1.174917 130 131 132
-0.587487 -0.331100 1.174922 87 87 87
-0.587488 -0.331123 1.174924 127 136 140
-0.587486 -0.331075 1.174919 54 55 56
-0.587487 -0.331111 1.174923 98 99 100
-0.587488 -0.331129 1.174924 131 130 128
-0.587485 -0.331058 1.174917 114 115 116
-0.587485 -0.331058 1.174917 114 115 116
-0.587486 -0.331081 1.174920 191 192 193
-0.587486 -0.331081 1.174920 191 192 193
-0.587486 -0.331082 1.174920 61 60 62
-0.587485 -0.331058 1.174917 25 26 27
-0.587487 -0.331109 1.174923 56 60 59
-0.587488 -0.331123 1.174924 246 253 255
-0.587488 -0.331123 1.174924 246 253 255
-0.587488 -0.331123 1.174924 124 131 135
-0.587488 -0.331120 1.174924 87 99 100
-0.587487 -0.331099 1.174922 169 169 169
-0.587484 -0.331051 1.174917 111 112 113
-0.587488 -0.331124 1.174924 208 218 224
-0.587487 -0.331101 1.174922 254 254 254
-0.587488 -0.331123 1.174924 162 170 172
-0.587488 -0.331119 1.174924 188 193 194
-0.587487 -0.331096 1.174922 175 175 175
-0.587486 -0.331079 1.174920 36 36 36
-0.587488 -0.331130 1.174925 41 41 41
-0.587486 -0.331075 1.174920 165 166 167
-0.587483 -0.331031 1.174915 73 73 73
-0.587488 -0.331120 1.174924 81 86 87
-0.587488 -0.331114 1.174924 88 90 89
-0.587484 -0.331050 1.174917 44 45 46
-0.587486 -0.331076 1.174920 57 58 59
-0.587487 -0.331095 1.174922 90 90 90
-0.587488 -0.331132 1.174926 210 212 211
-0.587488 -0.331123 1.174925 87 95 97
-0.587488 -0.331123 1.174925 239 244 247
-0.587484 -0.331041 1.174917 80 79 81
-0.587487 -0.331095 1.174922 106 106 106
-0.587488 -0.331122 1.174925 216 225 229
-0.587487 -0.331100 1.174923 253 253 253
-0.587487 -0.331096 1.174922 141 141 141
-0.587488 -0.331122 1.174925 212 226 232
-0.587488 -0.331130 1.174926 240 240 240
-0.587488 -0.331130 1.174926 240 240 240
-0.587487 -0.331101 1.174923 79 79 79
-0.587487 -0.331101 1.174923 79 79 79
-0.587487 -0.331102 1.174924 68 68 68
-0.587488 -0.331124 1.174926 226 233 237
-0.587488 -0.331114 1.174925 166 168 167
-0.587488 -0.331121 1.174926 213 222 226
-0.587488 -0.331124 1.174926 246 254 255
-0.587488 -0.331122 1.174926 106 119 122
-0.587487 -0.331099 1.174924 157 157 157
-0.587489 -0.331132 1.174927 69 71 70
-0.587489 -0.331130 1.174927 247 247 247
-0.587489 -0.331130 1.174927 247 247 247
-0.587486 -0.331076 1.174922 160 161 162
-0.587488 -0.331124 1.174927 234 244 246
-0.587486 -0.331077 1.174922 57 58 59
-0.587488 -0.331120 1.174926 220 224 229
-0.587488 -0.331121 1.174927 74 82 84
-0.587489 -0.331131 1.174927 59 59 59
-0.587488 -0.331114 1.174926 87 89 88
-0.587483 -0.331031 1.174918 75 75 75
-0.587485 -0.331054 1.174920 53 54 55
-0.587488 -0.331124 1.174927 115 123 125
-0.587489 -0.331130 1.174928 253 254 252
-0.587485 -0.331051 1.174920 54 56 55
-0.587487 -0.331101 1.174925 73 73 73
-0.587490 -0.331154 1.174930 104 106 105
-0.587488 -0.331114 1.174926 183 187 186
-0.587488 -0.331119 1.174927 223 226 227
-0.587488 -0.331119 1.174927 223 226 227
-0.587488 -0.331123 1.174928 102 110 110
-0.587485 -0.331053 1.174920 38 41 42
-0.587488 -0.331113 1.174926 85 88 89
-0.587488 -0.331124 1.174928 182 190 190
-0.587484 -0.331039 1.174919 71 81 88
-0.587488 -0.331118 1.174927 232 235 236
-0.587488 -0.331118 1.174927 232 235 236
-0.587489 -0.331131 1.174929 219 219 219
-0.587489 -0.331131 1.174929 219 219 219
-0.587488 -0.331118 1.174928 63 66 67
-0.587487 -0.331106 1.174927 48 47 49
-0.587487 -0.331106 1.174927 48 47 49
