ply
format ascii 1.0
element vertex 1092
property float x
property float y
property float z
property uchar red
property uchar green
property uchar blue
end_header
-75.300598 -42.532021 151.138992 54 114 168
-75.300743 -42.531876 151.139313 65 114 170
-75.300743 -42.531876 151.139313 65 114 170
-75.299980 -42.537121 151.137802 109 153 211
-75.300270 -42.537113 151.138397 43 86 137
-75.300240 -42.537209 151.138336 82 153 205
-75.300240 -42.537209 151.138336 82 153 205
-75.300461 -42.535263 151.138824 137 174 207
-75.300323 -42.537212 151.138550 28 88 142
-75.300232 -42.537308 151.138397 33 93 148
-75.300255 -42.536804 151.138443 221 244 255
-75.300186 -42.537350 151.138306 77 159 207
-75.300186 -42.537350 151.138306 77 159 207
-75.299995 -42.537132 151.137970 38 96 150
-75.300270 -42.537182 151.138550 182 212 255
-75.301132 -42.528103 151.140350 75 134 185
-75.300240 -42.537144 151.138550 64 98 146
-75.300171 -42.537537 151.138412 71 162 208
-75.300087 -42.537125 151.138275 34 83 134
-75.301117 -42.525917 151.140350 136 192 233
-75.300278 -42.536701 151.138672 67 97 143
-75.300011 -42.536610 151.138168 160 189 238
-75.300186 -42.537170 151.138535 166 201 251
-75.300850 -42.532291 151.139893 54 106 159
-75.300026 -42.536762 151.138260 211 226 255
-75.299805 -42.536873 151.137817 148 198 245
-75.300148 -42.537216 151.138519 145 209 255
-75.300087 -42.536697 151.138397 75 106 156
-75.300125 -42.537308 151.138474 106 157 213
-75.300262 -42.537262 151.138763 75 114 161
-75.300163 -42.537411 151.138596 77 165 212
-75.300163 -42.537411 151.138596 77 165 212
-75.300064 -42.536846 151.138412 229 236 255
-75.300117 -42.536621 151.138550 203 225 255
-75.300232 -42.536716 151.138763 78 94 135
-75.300125 -42.536449 151.138550 176 215 253
-75.300133 -42.537521 151.138611 31 97 151
-75.300133 -42.537521 151.138611 31 97 151
-75.300117 -42.536697 151.138580 180 203 244
-75.300117 -42.536697 151.138580 180 203 244
-75.300194 -42.537189 151.138733 140 176 231
-75.300140 -42.537457 151.138626 34 87 142
-75.300140 -42.537457 151.138626 34 87 142
-75.299957 -42.536777 151.138275 50 73 114
-75.300056 -42.536789 151.138474 134 168 221
-75.300407 -42.537769 151.139191 52 110 164
-75.300407 -42.537769 151.139191 52 110 164
-75.300110 -42.537548 151.138580 87 160 209
-75.300079 -42.537071 151.138535 216 240 255
-75.300339 -42.536919 151.139099 75 99 154
-75.299965 -42.538658 151.138336 15 15 15
-75.300110 -42.536644 151.138657 216 236 255
-75.299973 -42.536671 151.138382 72 92 142
-75.299896 -42.537876 151.138245 46 119 166
-75.300018 -42.537266 151.138504 169 225 255
-75.300285 -42.535679 151.138992 84 169 214
-75.300583 -42.530140 151.139694 222 236 249
-75.300133 -42.536819 151.138779 179 203 255
-75.300072 -42.540764 151.138672 98 161 201
-75.300140 -42.534912 151.138809 138 175 208
-75.300156 -42.537052 151.138855 225 240 255
-75.299973 -42.536831 151.138519 39 78 127
-75.299973 -42.536831 151.138519 39 78 127
-75.300102 -42.530052 151.138809 105 176 220
-75.300018 -42.530224 151.138733 188 216 245
-75.299919 -42.537159 151.138504 176 219 255
-75.299965 -42.536709 151.138611 65 77 123
-75.299934 -42.537273 151.138565 145 187 228
-75.300056 -42.537758 151.138809 92 160 214
-75.300049 -42.537300 151.138794 47 91 139
-75.300362 -42.537148 151.139435 71 107 155
-75.299690 -42.537197 151.138092 159 208 250
-75.300041 -42.536690 151.138809 61 86 130
-75.299927 -42.536766 151.138565 59 77 124
-75.300201 -42.537102 151.139175 138 178 222
-75.300385 -42.536949 151.139526 197 215 255
-75.299957 -42.537811 151.138687 79 158 209
-75.299957 -42.537811 151.138687 79 158 209
-75.300316 -42.537041 151.139435 184 209 253
-75.300316 -42.537041 151.139435 184 209 253
-75.299767 -42.536545 151.138336 162 198 240
-75.300224 -42.531506 151.139282 76 129 180
-75.300224 -42.531506 151.139282 76 129 180
-75.299599 -42.537212 151.138016 61 101 148
-75.300011 -42.537472 151.138885 171 209 255
-75.300392 -42.537182 151.139694 164 207 251
-75.299721 -42.537704 151.138412 49 107 161
-75.299721 -42.537704 151.138412 49 107 161
-75.299629 -42.537735 151.138214 45 98 153
-75.299736 -42.536686 151.138443 195 219 255
-75.300468 -42.529583 151.139938 12 18 26
-75.300468 -42.529583 151.139938 12 18 26
-75.299934 -42.535938 151.138855 128 195 235
-75.299850 -42.535648 151.138702 0 68 120
-75.300407 -42.531563 151.139862 82 128 176
-75.300659 -42.537342 151.140350 183 214 248
-75.299431 -42.537228 151.137924 172 220 255
-75.299416 -42.537220 151.137894 172 220 255
-75.299881 -42.537762 151.138885 41 108 158
-75.299751 -42.536674 151.138626 65 104 143
-75.299721 -42.537842 151.138596 87 153 207
-75.300087 -42.536129 151.139343 89 147 188
-75.299759 -42.536858 151.138702 96 118 148
-75.299759 -42.536858 151.138702 96 118 148
-75.299797 -42.537842 151.138779 34 96 150
-75.299797 -42.537842 151.138779 34 96 150
-75.299751 -42.537899 151.138718 44 93 149
-75.299667 -42.537144 151.138580 159 209 245
-75.299835 -42.537155 151.138931 38 97 141
-75.299835 -42.537155 151.138931 38 97 141
-75.299423 -42.542221 151.138199 195 188 189
-75.299835 -42.537457 151.139023 53 106 156
-75.299736 -42.537537 151.138840 179 218 255
-75.300148 -42.531395 151.139679 70 123 178
-75.299599 -42.537281 151.138580 162 197 242
-75.299721 -42.540241 151.138824 166 209 246
-75.299522 -42.537197 151.138458 161 201 244
-75.299835 -42.530491 151.139114 179 214 242
-75.300011 -42.537148 151.139465 185 214 247
-75.299858 -42.537647 151.139160 65 102 146
-75.299423 -42.537373 151.138290 162 203 244
-75.300003 -42.537090 151.139481 195 220 255
-75.299866 -42.537457 151.139191 78 117 164
-75.300331 -42.531075 151.140167 89 170 215
-75.300331 -42.531075 151.140167 89 170 215
-75.300331 -42.531075 151.140167 89 170 215
-75.300003 -42.537926 151.139496 31 99 152
-75.299942 -42.537533 151.139404 138 189 234
-75.299622 -42.537060 151.138748 160 203 247
-75.299576 -42.537537 151.138672 171 211 255
-75.299683 -42.537521 151.138885 140 175 225
-75.299828 -42.537872 151.139206 104 163 214
-75.299805 -42.537575 151.139191 45 94 145
-75.299805 -42.537575 151.139191 45 94 145
-75.299728 -42.537388 151.139038 152 200 243
-75.299576 -42.536655 151.138733 184 220 255
-75.299606 -42.537529 151.138809 60 84 139
-75.299751 -42.536972 151.139084 187 214 251
-75.299400 -42.537502 151.138443 60 104 152
-75.299660 -42.537033 151.138962 209 232 255
-75.299744 -42.536953 151.139130 64 95 135
-75.299652 -42.537533 151.138962 120 153 209
-75.299515 -42.536713 151.138702 63 95 134
-75.300140 -42.537567 151.139984 57 103 154
-75.299767 -42.537682 151.139221 167 189 241
-75.299706 -42.536888 151.139099 162 204 242
-75.299446 -42.537624 151.138580 43 105 154
-75.299629 -42.536877 151.138962 175 210 249
-75.299728 -42.535252 151.139175 121 156 188
-75.299728 -42.535252 151.139175 121 156 188
-75.299637 -42.537682 151.139008 148 203 248
-75.299622 -42.536922 151.138977 71 95 136
-75.299622 -42.536922 151.138977 71 95 136
-75.299629 -42.537567 151.138992 49 83 137
-75.299133 -42.541222 151.138062 40 34 30
-75.299408 -42.537586 151.138611 152 202 242
-75.299927 -42.537258 151.139648 206 225 255
-75.299568 -42.537251 151.138931 57 100 152
-75.299339 -42.536629 151.138504 186 218 254
-75.299286 -42.536957 151.138397 183 209 249
-75.300217 -42.538166 151.140274 83 160 212
-75.299644 -42.537079 151.139145 55 75 117
-75.299545 -42.537395 151.138931 59 116 160
-75.299156 -42.535843 151.138153 212 236 255
-75.299706 -42.537388 151.139282 121 169 222
-75.299500 -42.536968 151.138870 185 210 247
-75.299698 -42.537170 151.139267 64 82 124
-75.299698 -42.537170 151.139267 64 82 124
-75.299629 -42.537197 151.139145 67 97 133
-75.299629 -42.537197 151.139145 67 97 133
-75.299828 -42.537437 151.139557 39 84 136
-75.299591 -42.537857 151.139099 43 96 152
-75.299591 -42.537857 151.139099 43 96 152
-75.299622 -42.537518 151.139160 112 187 228
-75.299782 -42.537193 151.139496 210 230 255
-75.299553 -42.537132 151.139053 204 224 255
-75.300018 -42.531757 151.139984 75 129 181
-75.299408 -42.537487 151.138763 59 97 150
-75.299408 -42.537487 151.138763 59 97 150
-75.299561 -42.537769 151.139099 133 191 237
-75.299477 -42.537796 151.138962 112 163 219
-75.298859 -42.540714 151.137726 157 211 247
-75.299713 -42.537189 151.139465 188 213 239
-75.299332 -42.537693 151.138763 59 110 160
-75.299232 -42.537701 151.138596 60 108 161
-75.299339 -42.536865 151.138794 192 218 251
-75.299728 -42.537140 151.139572 203 226 255
-75.298836 -42.541737 151.137802 248 240 236
-75.298836 -42.541737 151.137802 248 240 236
-75.299194 -42.536598 151.138519 186 213 244
-75.300522 -42.528538 151.141220 127 187 227
-75.299637 -42.537273 151.139435 160 194 224
-75.299324 -42.537010 151.138855 215 237 255
-75.299538 -42.537079 151.139328 208 227 255
-75.299217 -42.536953 151.138702 70 90 126
-75.299217 -42.536953 151.138702 70 90 126
-75.299393 -42.536980 151.139084 187 213 246
-75.299393 -42.536980 151.139084 187 213 246
-75.299408 -42.537457 151.139145 37 87 140
-75.299408 -42.537457 151.139145 37 87 140
-75.299675 -42.536362 151.139679 217 237 255
-75.299332 -42.537563 151.139053 51 94 151
-75.298744 -42.541576 151.137863 252 246 245
-75.298744 -42.541576 151.137863 252 246 245
-75.299423 -42.537231 151.139236 184 214 250
-75.299263 -42.537643 151.138962 37 105 153
-75.299660 -42.537823 151.139801 98 170 219
-75.299248 -42.537540 151.138977 52 102 155
-75.299408 -42.537224 151.139313 62 85 129
-75.299408 -42.537224 151.139313 62 85 129
-75.298996 -42.541229 151.138474 32 29 33
-75.298973 -42.539845 151.138474 83 124 168
-75.299103 -42.537575 151.138748 58 99 156
-75.299141 -42.537262 151.138840 34 89 139
-75.299088 -42.537098 151.138733 179 207 250
-75.299660 -42.532639 151.139908 19 19 19
-75.299660 -42.532639 151.139908 19 19 19
-75.299080 -42.540028 151.138763 167 215 252
-75.299469 -42.536453 151.139572 170 194 211
-75.299377 -42.537804 151.139420 117 170 226
-75.299294 -42.537025 151.139252 180 206 247
-75.300003 -42.528950 151.140701 65 102 164
-75.299271 -42.537777 151.139221 59 102 159
-75.299240 -42.537563 151.139160 35 79 137
-75.299904 -42.530399 151.140533 25 106 151
-75.299049 -42.539841 151.138794 60 92 140
-75.298843 -42.537399 151.138412 96 150 202
-75.299019 -42.539883 151.138763 159 192 236
-75.299019 -42.539883 151.138763 159 192 236
-75.298912 -42.541431 151.138550 50 57 61
-75.299004 -42.537476 151.138733 121 166 220
-75.299065 -42.539330 151.138885 87 146 184
-75.299301 -42.536366 151.139359 218 246 255
-75.299294 -42.540092 151.139343 106 136 181
-75.298737 -42.539604 151.138229 145 188 232
-75.299095 -42.539314 151.138962 156 212 253
-75.300026 -42.523098 151.140854 138 133 129
-75.300026 -42.523098 151.140854 138 133 129
-75.298996 -42.540043 151.138794 87 125 167
-75.299263 -42.537548 151.139328 106 167 218
-75.299103 -42.539783 151.139008 72 121 164
-75.299164 -42.539978 151.139145 65 94 140
-75.299164 -42.539978 151.139145 65 94 140
-75.299225 -42.540375 151.139267 67 126 170
-75.299011 -42.539845 151.138855 160 192 240
-75.299065 -42.540073 151.138992 162 196 244
-75.299065 -42.540073 151.138992 162 196 244
-75.299492 -42.540154 151.139862 102 130 179
-75.299492 -42.540154 151.139862 102 130 179
-75.299065 -42.540039 151.139008 72 104 152
-75.298744 -42.540932 151.138367 156 202 236
-75.298721 -42.539776 151.138336 152 180 229
-75.299438 -42.537880 151.139801 71 101 160
-75.299438 -42.537880 151.139801 71 101 160
-75.298988 -42.540264 151.138885 131 187 233
-75.299179 -42.537434 151.139267 30 91 142
-75.299179 -42.537434 151.139267 30 91 142
-75.299263 -42.537636 151.139465 78 120 181
-75.299294 -42.533203 151.139511 220 240 255
-75.299492 -42.534740 151.139954 155 213 253
-75.298996 -42.537521 151.138962 55 97 158
-75.298889 -42.540016 151.138763 163 192 241
-75.298882 -42.539867 151.138779 164 193 238
-75.299789 -42.533661 151.140594 120 187 227
-75.298859 -42.541367 151.138733 50 49 47
-75.298904 -42.540005 151.138824 86 119 164
-75.298904 -42.540005 151.138824 86 119 164
-75.298943 -42.540585 151.138916 44 85 148
-75.298943 -42.540585 151.138916 44 85 148
-75.298843 -42.539768 151.138763 146 185 232
-75.299629 -42.533504 151.140335 43 61 88
-75.298927 -42.539875 151.138962 64 98 146
-75.298698 -42.539795 151.138504 156 185 231
-75.298866 -42.539875 151.138977 145 182 227
-75.298866 -42.539875 151.138977 145 182 227
-75.298912 -42.538998 151.139053 122 172 208
-75.298988 -42.540070 151.139236 171 210 249
-75.298775 -42.540016 151.138809 100 137 182
-75.299316 -42.533340 151.139954 123 157 191
-75.299828 -42.528828 151.141037 84 133 189
-75.298653 -42.540272 151.138672 55 116 167
-75.298965 -42.539783 151.139313 78 127 170
-75.298965 -42.539783 151.139313 78 127 170
-75.299545 -42.529839 151.140518 43 37 36
-75.298775 -42.540344 151.139008 107 165 219
-75.298775 -42.540344 151.139008 107 165 219
-75.299217 -42.533531 151.139923 255 254 254
-75.298698 -42.540268 151.138885 43 105 159
-75.298698 -42.540268 151.138885 43 105 159
-75.298531 -42.540619 151.138641 109 168 219
-75.298714 -42.540291 151.139008 105 159 211
-75.298729 -42.540428 151.139084 95 168 215
-75.299400 -42.532181 151.140457 92 86 85
-75.298790 -42.540352 151.139267 48 104 156
-75.298561 -42.539524 151.138809 133 179 227
-75.298599 -42.539509 151.138901 45 93 146
-75.299263 -42.533623 151.140244 128 130 129
-75.299034 -42.533447 151.139801 120 130 137
-75.298691 -42.540012 151.139099 120 171 207
-75.299507 -42.527771 151.140793 110 156 204
-75.299011 -42.533573 151.139801 233 230 228
-75.299278 -42.530392 151.140335 38 41 49
-75.299248 -42.534515 151.140274 126 177 213
-75.299339 -42.534714 151.140488 79 166 211
-75.299110 -42.533703 151.140030 136 145 159
-75.299057 -42.528484 151.139984 170 202 238
-75.299347 -42.533680 151.140533 120 133 142
-75.300064 -42.527092 151.142014 137 185 222
-75.299133 -42.530605 151.140137 30 38 46
-75.298241 -42.540474 151.138412 59 123 176
-75.297783 -42.526840 151.137573 119 182 222
-75.299171 -42.533844 151.140366 120 150 170
-75.299355 -42.530613 151.140732 255 252 250
-75.299355 -42.530613 151.140732 255 252 250
-75.299179 -42.533680 151.140396 85 95 107
-75.298538 -42.539894 151.139114 121 169 206
-75.298447 -42.540348 151.138962 48 108 162
-75.298714 -42.538773 151.139481 97 157 197
-75.299072 -42.533760 151.140228 218 218 218
-75.298607 -42.538757 151.139297 171 226 255
-75.298607 -42.538757 151.139297 171 226 255
-75.298698 -42.539768 151.139481 46 92 140
-75.298332 -42.540779 151.138763 94 143 185
-75.298332 -42.540779 151.138763 94 143 185
-75.299149 -42.531281 151.140396 27 57 80
-75.299118 -42.532749 151.140396 43 37 36
-75.298843 -42.540073 151.139862 160 205 243
-75.298523 -42.540745 151.139221 64 128 177
-75.298897 -42.533798 151.140030 132 158 175
-75.298531 -42.540573 151.139297 30 101 154
-75.298531 -42.540573 151.139297 30 101 154
-75.298775 -42.536655 151.139786 61 159 207
-75.298088 -42.539761 151.138428 80 126 168
-75.299103 -42.533749 151.140488 168 170 175
-75.298286 -42.540367 151.138855 51 117 171
-75.298286 -42.540367 151.138855 51 117 171
-75.299049 -42.536831 151.140381 60 158 206
-75.298653 -42.535812 151.139618 29 26 24
-75.299156 -42.531334 151.140762 73 62 59
-75.299156 -42.531334 151.140762 73 62 59
-75.298439 -42.540794 151.139328 58 122 170
-75.298828 -42.535419 151.140091 1 28 49
-75.298523 -42.535667 151.139496 31 25 24
-75.298889 -42.535652 151.140228 94 87 86
-75.298645 -42.535912 151.139740 16 13 11
-75.298828 -42.532345 151.140121 95 88 87
-75.298965 -42.533741 151.140427 50 69 85
-75.298447 -42.539631 151.139389 74 125 175
-75.298874 -42.535873 151.140274 77 71 70
-75.298447 -42.540741 151.139420 50 119 169
-75.298363 -42.539932 151.139267 159 205 239
-75.298767 -42.535896 151.140106 69 63 62
-75.298729 -42.533810 151.140030 186 184 178
-75.298515 -42.540203 151.139618 70 125 170
-75.298492 -42.539543 151.139633 112 167 217
-75.298393 -42.539856 151.139435 81 113 153
-75.298279 -42.539452 151.139297 52 107 156
-75.298836 -42.532551 151.140427 87 81 77
-75.298836 -42.532551 151.140427 87 81 77
-75.297974 -42.539879 151.138748 78 120 167
-75.297974 -42.539879 151.138748 78 120 167
-75.298393 -42.535412 151.139572 32 26 22
-75.298309 -42.539997 151.139420 92 131 170
-75.298706 -42.535908 151.140213 34 27 26
-75.298706 -42.533730 151.140228 27 44 59
-75.298141 -42.540092 151.139084 58 113 163
-75.298744 -42.533733 151.140366 67 101 125
-75.299316 -42.526188 151.141541 20 19 17
-75.298340 -42.539993 151.139557 179 211 243
-75.298340 -42.539993 151.139557 179 211 243
-75.298019 -42.539761 151.138916 119 163 197
-75.298759 -42.533825 151.140427 202 203 204
-75.298759 -42.533825 151.140427 202 203 204
-75.298668 -42.536106 151.140259 88 81 80
-75.298233 -42.537834 151.139374 38 41 44
-75.298790 -42.533939 151.140518 119 132 141
-75.299454 -42.531063 151.141861 17 20 23
-75.298866 -42.532631 151.140717 101 95 94
-75.298332 -42.540051 151.139648 155 195 238
-75.298538 -42.533665 151.140091 39 42 50
-75.298515 -42.535355 151.140030 93 86 85
-75.298805 -42.535999 151.140640 31 22 21
-75.298447 -42.540710 151.139938 38 109 162
-75.298058 -42.538837 151.139160 181 219 248
-75.298965 -42.530064 151.141006 51 45 41
-75.298492 -42.539867 151.140045 83 127 175
-75.298492 -42.539867 151.140045 83 127 175
-75.298752 -42.533825 151.140594 226 237 235
-75.298416 -42.533951 151.139938 62 159 204
-75.298660 -42.532555 151.140427 143 137 136
-75.298676 -42.532528 151.140488 49 42 41
-75.298767 -42.532471 151.140671 88 82 81
-75.298767 -42.532471 151.140671 88 82 81
-75.298515 -42.533970 151.140152 62 156 202
-75.298271 -42.535069 151.139679 38 32 31
-75.298767 -42.533775 151.140701 179 190 193
-75.299164 -42.531597 151.141495 110 147 171
-75.298721 -42.533939 151.140610 86 129 156
-75.298637 -42.535202 151.140442 89 82 83
-75.298187 -42.537609 151.139557 7 28 46
-75.298988 -42.533939 151.141235 38 87 107
-75.298737 -42.533916 151.140747 101 153 178
-75.298737 -42.533916 151.140747 101 153 178
-75.298714 -42.535469 151.140732 86 78 74
-75.298561 -42.538471 151.140457 16 16 16
-75.298630 -42.531303 151.140610 255 255 255
-75.298630 -42.531303 151.140610 255 255 255
-75.298309 -42.535545 151.139938 38 32 28
-75.298309 -42.535545 151.139938 38 32 28
-75.298943 -42.538040 151.141235 64 57 58
-75.298943 -42.538040 151.141235 64 57 58
-75.298630 -42.536144 151.140594 38 29 28
-75.298325 -42.540054 151.139999 50 106 152
-75.298325 -42.540054 151.139999 50 106 152
-75.298645 -42.533752 151.140671 55 110 131
-75.298431 -42.535545 151.140259 49 41 37
-75.298019 -42.540169 151.139435 89 151 210
-75.298584 -42.535870 151.140610 27 21 17
-75.298134 -42.540180 151.139740 33 86 147
-75.298447 -42.534138 151.140350 121 157 176
-75.298508 -42.534592 151.140488 0 35 58
-75.298058 -42.540253 151.139587 34 95 153
-75.298134 -42.539131 151.139755 139 187 217
-75.298676 -42.534416 151.140854 7 31 48
-75.298386 -42.533134 151.140274 28 29 30
-75.298660 -42.533810 151.140854 37 121 158
-75.298325 -42.540863 151.140182 46 122 169
-75.298470 -42.532600 151.140518 22 22 22
-75.298592 -42.535732 151.140762 40 34 30
-75.298515 -42.529041 151.140625 60 54 50
-75.298325 -42.535732 151.140228 36 28 24
-75.298347 -42.534687 151.140289 36 30 26
-75.298370 -42.533634 151.140350 173 200 215
-75.298080 -42.534618 151.139755 41 34 33
-75.298218 -42.537846 151.140045 25 35 47
-75.298416 -42.534878 151.140472 52 45 44
-75.298141 -42.540665 151.139938 89 166 218
-75.298141 -42.540665 151.139938 89 166 218
-75.298347 -42.533550 151.140335 151 162 178
-75.298531 -42.532303 151.140732 75 151 189
-75.298218 -42.539993 151.140091 68 119 164
-75.298218 -42.539993 151.140091 68 119 164
-75.297966 -42.539909 151.139603 145 192 240
-75.298882 -42.536224 151.141464 48 42 41
-75.298195 -42.533180 151.140091 179 173 172
-75.298393 -42.534092 151.140488 90 83 82
-75.298325 -42.540165 151.140381 74 127 177
-75.298103 -42.535229 151.139969 48 40 36
-75.298340 -42.534050 151.140457 31 33 38
-75.298042 -42.534794 151.139847 43 34 33
-75.298218 -42.534405 151.140228 40 32 28
-75.297951 -42.539867 151.139694 165 209 255
-75.298355 -42.533245 151.140503 221 216 212
-75.298256 -42.535240 151.140305 98 87 84
-75.298363 -42.534672 151.140564 108 100 96
-75.298363 -42.534672 151.140564 108 100 96
-75.298836 -42.532616 151.141510 8 48 77
-75.298836 -42.532616 151.141510 8 48 77
-75.298149 -42.535233 151.140137 48 36 36
-75.298058 -42.540020 151.139938 127 184 233
-75.298424 -42.533260 151.140701 199 199 194
-75.298523 -42.535625 151.140900 43 35 31
-75.298523 -42.535625 151.140900 43 35 31
-75.298431 -42.534489 151.140717 42 34 29
-75.298431 -42.534489 151.140717 42 34 29
-75.297806 -42.539722 151.139481 77 123 174
-75.297951 -42.534424 151.139771 46 38 34
-75.298607 -42.534508 151.141098 85 77 73
-75.298653 -42.532330 151.141190 121 161 196
-75.298409 -42.533989 151.140717 158 208 245
-75.298279 -42.533237 151.140457 39 41 36
-75.298416 -42.534126 151.140747 107 177 219
-75.298248 -42.534931 151.140427 44 33 30
-75.298126 -42.534431 151.140198 71 60 57
-75.297813 -42.539783 151.139572 75 121 169
-75.297813 -42.539783 151.139572 75 121 169
-75.298264 -42.535309 151.140472 45 33 33
-75.298454 -42.533279 151.140869 30 33 42
-75.298454 -42.533279 151.140869 30 33 42
-75.297882 -42.540054 151.139740 45 106 164
-75.298660 -42.538490 151.141296 34 31 35
-75.298477 -42.533718 151.140961 26 24 24
-75.298141 -42.532898 151.140274 87 171 213
-75.298141 -42.532898 151.140274 87 171 213
-75.297981 -42.540283 151.139969 34 115 167
-75.297981 -42.540283 151.139969 34 115 167
-75.296921 -42.539349 151.137848 125 180 229
-75.298492 -42.534321 151.141037 33 31 37
-75.298477 -42.532639 151.141022 91 139 169
-75.297867 -42.540283 151.139786 89 161 214
-75.298172 -42.535233 151.140396 36 30 29
-75.297798 -42.540295 151.139664 24 95 151
-75.298065 -42.534332 151.140228 47 36 33
-75.298058 -42.540012 151.140228 53 120 170
-75.298096 -42.535397 151.140320 95 88 87
-75.298294 -42.534359 151.140732 133 124 123
-75.298294 -42.534359 151.140732 133 124 123
-75.298409 -42.534367 151.140961 50 54 59
-75.298553 -42.534435 151.141266 22 34 46
-75.298401 -42.532578 151.140991 255 255 254
-75.298401 -42.532578 151.140991 255 255 254
-75.298027 -42.535095 151.140274 42 35 34
-75.298103 -42.532211 151.140442 26 79 118
-75.298004 -42.535381 151.140213 35 26 25
-75.298698 -42.533428 151.141632 38 36 42
-75.298141 -42.535572 151.140503 39 33 32
-75.298279 -42.534351 151.140793 34 33 42
-75.297646 -42.540024 151.139526 35 101 160
-75.298004 -42.538334 151.140228 25 24 28
-75.298126 -42.526543 151.140518 45 42 40
-75.298492 -42.532768 151.141266 113 169 204
-75.298149 -42.535389 151.140564 36 27 26
-75.298042 -42.534851 151.140366 126 115 112
-75.298096 -42.534607 151.140472 44 38 34
-75.297684 -42.539921 151.139694 35 91 151
-75.298325 -42.534500 151.140991 44 53 62
-75.298050 -42.534954 151.140457 43 34 33
-75.298050 -42.534954 151.140457 43 34 33
-75.298050 -42.534985 151.140472 95 86 85
-75.298141 -42.535431 151.140656 37 31 27
-75.297699 -42.539993 151.139801 89 161 214
-75.298149 -42.532463 151.140701 113 128 141
-75.298172 -42.535645 151.140778 86 80 79
-75.298172 -42.532379 151.140808 6 70 113
-75.298500 -42.532856 151.141479 100 168 205
-75.298149 -42.532478 151.140854 103 154 187
-75.298203 -42.532604 151.141006 111 122 136
-75.298203 -42.535191 151.141068 46 41 37
-75.297699 -42.535370 151.140152 32 26 25
-75.297699 -42.535370 151.140152 32 26 25
-75.298157 -42.532738 151.141068 243 241 241
-75.297585 -42.535057 151.139938 39 32 31
-75.298004 -42.532379 151.140869 95 180 225
-75.297813 -42.534546 151.140594 105 183 224
-75.298004 -42.531757 151.140961 51 111 166
-75.298042 -42.533558 151.141098 15 16 14
-75.298462 -42.537186 151.141953 69 162 211
-75.297821 -42.535484 151.140732 186 184 179
-75.298012 -42.532738 151.141113 120 131 140
-75.297783 -42.535435 151.140656 16 13 11
-75.298302 -42.528889 151.141754 27 26 30
-75.297447 -42.532623 151.140060 89 150 178
-75.297890 -42.535450 151.140930 31 32 33
-75.298157 -42.534618 151.141510 113 189 230
-75.297958 -42.535595 151.141144 19 16 14
-75.297890 -42.532757 151.141052 114 124 142
-75.297623 -42.537628 151.140518 57 142 187
-75.297798 -42.532898 151.140900 120 156 181
-75.298271 -42.527931 151.141891 69 58 54
-75.297585 -42.535358 151.140503 90 128 157
-75.297516 -42.536423 151.140396 0 78 122
-75.297516 -42.536423 151.140396 0 78 122
-75.297546 -42.534157 151.140472 115 188 227
-75.297935 -42.532963 151.141266 254 255 255
-75.297958 -42.532879 151.141373 121 132 148
-75.296066 -42.540398 151.137680 34 30 30
-75.297745 -42.532993 151.141113 137 144 148
-75.297935 -42.532139 151.141525 49 110 168
-75.298012 -42.531750 151.141678 48 125 176
-75.298012 -42.531750 151.141678 48 125 176
-75.297966 -42.533253 151.141586 101 128 149
-75.297836 -42.532997 151.141342 221 226 227
-75.298134 -42.529888 151.142014 255 255 249
-75.298134 -42.529888 151.142014 255 255 249
-75.297836 -42.531494 151.141479 55 113 167
-75.297836 -42.531494 151.141479 55 113 167
-75.297562 -42.534595 151.141022 147 207 248
-75.297707 -42.532570 151.141342 44 91 148
-75.297707 -42.532570 151.141342 44 91 148
-75.297813 -42.533627 151.141785 148 208 243
-75.298111 -42.533772 151.142685 37 112 155
-75.297348 -42.532627 151.141373 44 112 166
-75.297333 -42.532700 151.141373 67 152 202
-75.297539 -42.531761 151.141953 53 122 172
-75.297249 -42.533356 151.141403 10 13 14
-75.297699 -42.532860 151.142319 51 115 169
-75.297180 -42.537189 151.141357 187 225 254
-75.297348 -42.537510 151.141724 144 211 251
-75.296722 -42.537025 151.140503 175 229 255
-75.297295 -42.532455 151.141663 43 103 163
-75.296989 -42.537121 151.141129 180 232 255
-75.297134 -42.537155 151.141449 182 224 255
-75.297424 -42.532948 151.142044 68 158 208
-75.296959 -42.539913 151.141113 20 19 17
-75.297241 -42.532749 151.141739 93 157 210
-75.297089 -42.537224 151.141464 193 245 255
-75.297089 -42.537224 151.141464 193 245 255
-75.297234 -42.537697 151.141785 156 218 255
-75.296730 -42.532604 151.140793 44 109 166
-75.296921 -42.537212 151.141205 95 166 204
-75.297195 -42.535286 151.141785 35 109 161
-75.297195 -42.535286 151.141785 35 109 161
-75.297165 -42.532734 151.141708 48 108 162
-75.296898 -42.534870 151.141235 88 155 205
-75.296898 -42.534870 151.141235 88 155 205
-75.297112 -42.535072 151.141724 45 118 167
-75.297142 -42.535236 151.141800 30 90 145
-75.297112 -42.536198 151.141861 48 135 180
-75.296959 -42.534958 151.141541 32 90 144
-75.297401 -42.532291 151.142456 52 118 171
-75.297401 -42.532291 151.142456 52 118 171
-75.296906 -42.534996 151.141464 78 158 206
-75.296806 -42.537632 151.141266 145 218 255
-75.296761 -42.532440 151.141251 46 114 167
-75.296745 -42.536949 151.141220 168 218 255
-75.297150 -42.535122 151.142059 37 103 157
-75.297150 -42.535122 151.142059 37 103 157
-75.296776 -42.534763 151.141434 55 104 160
-75.296982 -42.535255 151.141891 57 121 174
-75.296761 -42.535652 151.141464 92 163 216
-75.296791 -42.536434 151.141525 120 188 230
-75.296799 -42.535671 151.141602 75 158 204
-75.296783 -42.534752 151.141602 46 114 167
-75.296585 -42.531929 151.141251 58 120 175
-75.296967 -42.532566 151.142014 46 118 170
-75.296776 -42.535240 151.141632 47 107 161
-75.296539 -42.535583 151.141190 40 111 163
-75.296570 -42.538136 151.141266 146 213 253
-75.297020 -42.531834 151.142197 40 104 163
-75.297096 -42.532200 151.142395 74 135 193
-75.297096 -42.532200 151.142395 74 135 193
-75.296814 -42.534897 151.141815 102 161 212
-75.296814 -42.534897 151.141815 102 161 212
-75.296570 -42.535591 151.141312 45 109 163
-75.297020 -42.532089 151.142242 45 110 167
-75.296791 -42.534927 151.141785 47 122 171
-75.296791 -42.534927 151.141785 47 122 171
-75.296516 -42.535206 151.141251 34 102 156
-75.296516 -42.535206 151.141251 34 102 156
-75.296700 -42.535244 151.141632 58 118 173
-75.296982 -42.535263 151.142258 94 152 206
-75.296814 -42.535213 151.141922 41 103 158
-75.296371 -42.534874 151.141068 50 118 171
-75.296906 -42.535217 151.142166 99 157 211
-75.296898 -42.531754 151.142166 67 126 184
-75.296928 -42.531685 151.142242 56 111 167
-75.296928 -42.531685 151.142242 56 111 167
-75.296623 -42.535130 151.141632 102 160 215
-75.296959 -42.531910 151.142349 54 110 170
-75.296432 -42.539707 151.141281 12 11 9
-75.296715 -42.529587 151.141907 44 42 37
-75.296715 -42.529587 151.141907 44 42 37
-75.296501 -42.539902 151.141510 76 139 164
-75.296570 -42.536533 151.141663 162 210 246
-75.296936 -42.535217 151.142471 96 154 208
-75.296577 -42.532570 151.141769 41 120 171
-75.296707 -42.538616 151.142029 155 218 255
-75.296631 -42.535789 151.141876 29 105 160
-75.296631 -42.535789 151.141876 29 105 160
-75.296974 -42.538212 151.142624 96 172 218
-75.296974 -42.538212 151.142624 96 172 218
-75.296265 -42.538357 151.141235 65 149 191
-75.296494 -42.535126 151.141693 92 163 215
-75.296875 -42.535263 151.142471 104 158 210
-75.296036 -42.539791 151.140793 132 205 238
-75.296333 -42.539871 151.141388 82 116 132
-75.296227 -42.536438 151.141205 179 225 255
-75.296417 -42.537556 151.141602 124 172 208
-75.296150 -42.539581 151.141068 171 171 171
-75.296150 -42.539581 151.141068 171 171 171
-75.296356 -42.539810 151.141541 165 192 201
-75.296448 -42.535065 151.141754 50 115 165
-75.296036 -42.539238 151.140915 10 10 10
-75.296478 -42.535122 151.141830 102 157 213
-75.296478 -42.535122 151.141830 102 157 213
-75.296318 -42.536644 151.141571 75 126 162
-75.296570 -42.535213 151.142075 55 117 172
-75.296570 -42.535213 151.142075 55 117 172
-75.296379 -42.536629 151.141708 186 228 255
-75.295998 -42.539726 151.140961 64 161 193
-75.296562 -42.532120 151.142136 58 123 173
-75.296135 -42.538837 151.141281 171 219 255
-75.296135 -42.538837 151.141281 171 219 255
-75.296768 -42.539478 151.142563 5 97 143
-75.296661 -42.532578 151.142365 41 113 166
-75.296623 -42.535957 151.142303 91 153 208
-75.296074 -42.539661 151.141205 208 209 210
-75.296791 -42.535583 151.142654 50 118 171
-75.296791 -42.535583 151.142654 50 118 171
-75.296165 -42.539013 151.141495 156 212 253
-75.296165 -42.539013 151.141495 156 212 253
-75.296181 -42.535187 151.141556 119 185 233
-75.296181 -42.535187 151.141556 119 185 233
-75.296440 -42.535305 151.142105 51 112 163
-75.296440 -42.535305 151.142105 51 112 163
-75.296356 -42.534920 151.141953 42 104 163
-75.296516 -42.535095 151.142288 43 111 171
-75.297295 -42.530807 151.143845 11 11 11
-75.296043 -42.539177 151.141342 122 166 198
-75.296379 -42.539726 151.142044 185 180 182
-75.296379 -42.539726 151.142044 185 180 182
-75.296333 -42.535847 151.141953 26 99 148
-75.296219 -42.539143 151.141739 199 243 255
-75.296837 -42.539963 151.142960 168 163 165
-75.296425 -42.539230 151.142166 100 157 196
-75.296082 -42.539127 151.141495 139 204 243
-75.296272 -42.535629 151.141876 66 102 160
-75.296158 -42.535454 151.141678 38 104 158
-75.296181 -42.539600 151.141739 238 237 239
-75.295990 -42.539082 151.141373 197 243 255
-75.295860 -42.539219 151.141129 227 221 217
-75.296318 -42.539547 151.142044 166 159 158
-75.296257 -42.539516 151.141953 185 179 175
-75.296257 -42.539516 151.141953 185 179 175
-75.295845 -42.539249 151.141144 168 159 158
-75.297234 -42.535500 151.143982 40 110 168
-75.296066 -42.539425 151.141632 255 254 252
-75.296089 -42.539391 151.141708 251 252 255
-75.296173 -42.535690 151.141891 48 96 156
-75.295906 -42.539112 151.141357 197 231 255
-75.296021 -42.539272 151.141647 93 178 222
-75.296219 -42.539284 151.142090 85 148 187
-75.296051 -42.539192 151.141754 85 148 187
-75.295845 -42.539413 151.141434 38 38 38
-75.295998 -42.531281 151.141769 193 229 254
-75.296333 -42.535049 151.142471 87 155 209
-75.296021 -42.535812 151.141861 56 98 159
-75.296234 -42.535973 151.142273 95 166 222
-75.296013 -42.535923 151.141876 94 160 214
-75.296570 -42.535244 151.143005 32 105 161
-75.296570 -42.535244 151.143005 32 105 161
-75.295822 -42.537159 151.141556 103 168 207
-75.295914 -42.537216 151.141800 159 218 255
-75.296379 -42.535027 151.142746 98 160 215
-75.295990 -42.534904 151.141968 84 157 213
-75.295990 -42.534904 151.141968 84 157 213
-75.295944 -42.535698 151.141876 46 114 168
-75.296021 -42.537247 151.142044 107 160 199
-75.295967 -42.535900 151.141937 39 91 150
-75.295967 -42.535900 151.141937 39 91 150
-75.296036 -42.534882 151.142090 40 100 155
-75.296043 -42.532246 151.142120 124 187 226
-75.296143 -42.535057 151.142395 49 111 166
-75.296463 -42.532444 151.143021 170 214 246
-75.295998 -42.534836 151.142105 52 105 161
-75.295914 -42.538837 151.141937 98 165 205
-75.295937 -42.534859 151.142029 103 151 211
-75.295937 -42.534859 151.142029 103 151 211
-75.296402 -42.535282 151.143005 44 118 170
-75.295937 -42.535191 151.142075 35 120 170
-75.295937 -42.535191 151.142075 35 120 170
-75.296074 -42.537231 151.142349 149 213 250
-75.295883 -42.538960 151.141983 178 228 255
-75.295944 -42.534969 151.142105 93 161 214
-75.296173 -42.529129 151.142593 9 10 11
-75.296120 -42.535015 151.142487 47 99 158
-75.295631 -42.535683 151.141525 76 163 214
-75.296234 -42.535641 151.142807 51 114 171
-75.296112 -42.535046 151.142563 96 159 216
-75.295990 -42.535847 151.142319 86 160 213
-75.295929 -42.535442 151.142288 54 106 165
-75.295731 -42.539433 151.141891 157 222 255
-75.295998 -42.534981 151.142410 50 103 159
-75.296211 -42.527122 151.142868 82 161 207
-75.295776 -42.535065 151.142059 45 122 173
-75.295776 -42.535065 151.142059 45 122 173
-75.295692 -42.535736 151.141907 34 108 161
-75.295692 -42.535736 151.141907 34 108 161
-75.295532 -42.537216 151.141724 146 214 251
-75.295647 -42.537685 151.141953 80 149 188
-75.295776 -42.537449 151.142334 156 232 255
-75.295090 -42.538738 151.140961 10 33 60
-75.295654 -42.539665 151.142166 166 232 255
-75.295578 -42.539368 151.141998 65 132 171
-75.295372 -42.540695 151.141602 210 235 255
-75.295792 -42.533398 151.142487 9 9 9
-75.295792 -42.533398 151.142487 9 9 9
-75.295914 -42.535553 151.142761 40 112 165
-75.295914 -42.535553 151.142761 40 112 165
-75.295273 -42.539310 151.141495 71 128 167
-75.295456 -42.539486 151.141876 114 162 192
-75.295685 -42.539589 151.142365 0 21 45
-75.295845 -42.536392 151.142746 25 20 16
-75.297440 -42.540298 151.146011 53 48 44
-75.295151 -42.539326 151.141418 29 31 36
-75.296074 -42.536900 151.143265 22 20 20
-75.294815 -42.540646 151.140762 149 194 232
-75.295616 -42.539696 151.142426 108 106 112
-75.295662 -42.535545 151.142548 46 111 168
-75.295700 -42.535530 151.142639 40 111 167
-75.295578 -42.539677 151.142441 96 114 116
-75.295654 -42.535549 151.142624 88 156 210
-75.295532 -42.535530 151.142426 37 116 168
-75.295616 -42.536377 151.142639 68 67 65
-75.295998 -42.534992 151.143417 63 166 210
-75.295441 -42.539665 151.142365 42 44 43
-75.295433 -42.539715 151.142410 38 42 41
-75.295380 -42.533001 151.142288 64 61 59
-75.295380 -42.535427 151.142303 38 106 160
-75.294716 -42.531498 151.141068 53 45 46
-75.294716 -42.531498 151.141068 53 45 46
-75.294945 -42.541039 151.141510 169 215 249
-75.294891 -42.542198 151.141663 140 193 232
-75.295372 -42.533035 151.142654 82 75 74
-75.295486 -42.538280 151.142944 8 22 39
-75.295486 -42.540642 151.143127 6 7 5
-75.294991 -42.538830 151.142181 96 87 86
-75.295006 -42.539696 151.142242 135 163 176
-75.295219 -42.530735 151.142700 91 131 178
-75.295891 -42.537205 151.144073 122 197 238
-75.294960 -42.537594 151.142258 37 30 31
-75.295509 -42.531597 151.143433 117 184 223
-75.295158 -42.537563 151.142715 140 223 255
-75.295158 -42.537563 151.142715 140 223 255
-75.295044 -42.537621 151.142609 113 193 235
-75.295357 -42.531048 151.143265 135 167 207
-75.295708 -42.531113 151.143997 167 206 239
-75.295204 -42.533340 151.143066 77 72 68
-75.295326 -42.530788 151.143326 95 135 178
-75.295242 -42.532116 151.143173 54 46 47
-75.295082 -42.533218 151.142853 92 84 80
-75.295418 -42.537960 151.143616 112 148 173
-75.295082 -42.530937 151.142960 167 206 239
-75.294441 -42.542301 151.141663 172 209 242
-75.295059 -42.537830 151.142929 32 29 31
-75.294968 -42.531067 151.142776 102 130 181
-75.295364 -42.533913 151.143570 78 72 71
-75.294449 -42.541920 151.141830 164 207 244
-75.295197 -42.531368 151.143387 69 108 163
-75.294678 -42.541050 151.142349 100 113 122
-75.294472 -42.541046 151.141953 107 118 127
-75.295151 -42.541260 151.143341 109 110 113
-75.294403 -42.540932 151.141907 211 208 210
-75.294815 -42.541107 151.142761 122 112 113
-75.294601 -42.541088 151.142365 178 172 171
-75.295685 -42.539280 151.144562 46 38 39
-75.294968 -42.534641 151.143158 4 16 23
-75.294937 -42.534592 151.143112 71 70 74
-75.294998 -42.540638 151.143234 141 136 132
-75.295135 -42.533337 151.143509 43 37 33
-75.295258 -42.541599 151.143784 57 107 122
-75.294579 -42.540752 151.142395 160 159 157
-75.294899 -42.534210 151.143066 83 77 73
-75.295120 -42.536839 151.143524 174 212 243
-75.294952 -42.541157 151.143188 255 255 254
-75.294884 -42.534615 151.143066 69 69 69
-75.294731 -42.534775 151.142792 0 14 38
-75.295120 -42.541569 151.143570 42 141 189
-75.294594 -42.539520 151.142532 24 22 22
-75.294594 -42.539520 151.142532 24 22 22
-75.294342 -42.540516 151.142075 124 154 167
-75.294586 -42.540501 151.142563 255 255 254
-75.294792 -42.536850 151.142990 102 160 196
-75.294502 -42.540340 151.142410 183 169 165
-75.294647 -42.540634 151.142700 104 127 139
-75.294235 -42.540081 151.141907 204 193 190
-75.294556 -42.539986 151.142563 35 34 36
-75.294525 -42.532650 151.142517 98 90 86
-75.295189 -42.537998 151.143845 76 171 215
-75.294838 -42.536560 151.143158 179 218 251
-75.294838 -42.536560 151.143158 179 218 251
-75.294724 -42.541298 151.142929 16 18 17
-75.294624 -42.540741 151.142731 103 145 168
-75.294754 -42.534424 151.143021 34 28 27
-75.294754 -42.534424 151.143021 34 28 27
-75.294739 -42.540367 151.143005 169 155 152
-75.294533 -42.540310 151.142624 250 240 241
-75.294334 -42.540142 151.142288 250 248 248
-75.294563 -42.538101 151.142731 69 62 61
-75.293983 -42.539730 151.141602 204 192 192
-75.294518 -42.536995 151.142685 143 184 217
-75.294518 -42.536995 151.142685 143 184 217
-75.294495 -42.538040 151.142700 59 56 54
-75.294357 -42.539928 151.142456 118 110 113
-75.294350 -42.540722 151.142471 45 38 39
-75.294495 -42.537392 151.142776 21 108 159
-75.294678 -42.534702 151.143234 59 58 56
-75.294273 -42.539948 151.142426 95 106 115
-75.294395 -42.534061 151.142761 34 26 22
-75.294685 -42.537254 151.143341 165 213 255
-75.294525 -42.539932 151.143066 81 110 135
-75.294937 -42.533634 151.143906 81 75 70
-75.294640 -42.530674 151.143326 57 119 174
-75.294655 -42.538364 151.143356 175 169 165
-75.294113 -42.539890 151.142273 83 138 160
-75.294510 -42.534252 151.143112 82 74 70
-75.294617 -42.537197 151.143341 143 186 229
-75.294449 -42.540054 151.142990 190 232 255
-75.294449 -42.540054 151.142990 190 232 255
-75.294647 -42.540077 151.143387 64 92 111
-75.294540 -42.537090 151.143188 23 68 119
-75.294449 -42.538311 151.143021 185 177 173
-75.294495 -42.537216 151.143143 43 105 148
-75.294205 -42.541313 151.142578 56 45 41
-75.294693 -42.530983 151.143585 68 136 189
-75.294495 -42.534344 151.143188 99 91 87
-75.294487 -42.538479 151.143188 86 80 79
-75.294876 -42.540169 151.143967 74 158 195
-75.294754 -42.537254 151.143738 125 171 219
-75.294426 -42.537533 151.143112 20 101 153
-75.294426 -42.537533 151.143112 20 101 153
-75.294655 -42.531403 151.143570 132 186 228
-75.294662 -42.530560 151.143631 86 129 181
-75.294357 -42.536915 151.143005 35 100 150
-75.294289 -42.537422 151.142914 17 87 143
-75.294464 -42.537659 151.143280 4 87 138
-75.294579 -42.531097 151.143555 156 202 236
-75.294159 -42.537304 151.142715 13 75 130
-75.294159 -42.537304 151.142715 13 75 130
-75.294746 -42.532246 151.143906 107 185 226
-75.294685 -42.536854 151.143799 0 75 132
-75.294281 -42.537567 151.143005 87 166 218
-75.295006 -42.537865 151.144485 79 162 212
-75.295006 -42.537865 151.144485 79 162 212
-75.293365 -42.539684 151.141174 59 158 206
-75.294304 -42.533829 151.143082 35 27 23
-75.294304 -42.534260 151.143082 89 82 81
-75.294586 -42.537247 151.143661 42 106 155
-75.294640 -42.530838 151.143784 146 196 233
-75.294426 -42.536728 151.143372 99 165 219
-75.294304 -42.537563 151.143127 79 160 212
-75.294418 -42.534672 151.143356 74 68 67
-75.294426 -42.537598 151.143372 9 85 140
-75.294540 -42.534008 151.143631 103 95 91
-75.295837 -42.538013 151.146255 99 176 219
-75.294861 -42.537453 151.144302 102 179 222
-75.294861 -42.537453 151.144302 102 179 222
-75.294434 -42.533669 151.143448 92 81 78
-75.294388 -42.537369 151.143448 21 83 138
-75.294167 -42.538319 151.143051 134 135 144
-75.294365 -42.533974 151.143463 78 70 66
-75.294373 -42.534210 151.143509 80 74 73
-75.294357 -42.533840 151.143463 93 82 79
-75.294357 -42.533840 151.143463 93 82 79
-75.294235 -42.537212 151.143250 100 161 212
-75.294235 -42.537212 151.143250 100 161 212
-75.294235 -42.537212 151.143250 100 161 212
-75.294037 -42.538673 151.142838 5 7 6
-75.294037 -42.538673 151.142838 5 7 6
-75.294472 -42.530308 151.143753 114 148 196
-75.294189 -42.537197 151.143188 118 173 228
-75.294189 -42.537197 151.143188 118 173 228
-75.294342 -42.539364 151.143494 87 172 216
-75.294144 -42.534611 151.143112 49 46 44
-75.295052 -42.539993 151.144943 54 153 201
-75.294258 -42.536682 151.143387 31 98 155
-75.294395 -42.537327 151.143707 37 83 143
-75.294395 -42.537327 151.143707 37 83 143
-75.294540 -42.532860 151.144012 134 200 243
-75.294235 -42.533413 151.143417 92 84 80
-75.294395 -42.537376 151.143738 77 160 211
-75.294144 -42.536636 151.143234 31 89 149
-75.294716 -42.537701 151.144409 13 102 155
-75.294342 -42.538536 151.143692 136 139 142
-75.294212 -42.537277 151.143448 27 108 160
-75.294426 -42.537365 151.143875 107 165 220
-75.294121 -42.536533 151.143265 10 91 143
-75.294121 -42.536533 151.143265 10 91 143
-75.294441 -42.531700 151.143906 66 94 153
-75.294441 -42.531700 151.143906 66 94 153
-75.294319 -42.537487 151.143677 72 156 210
-75.293983 -42.536560 151.143005 100 162 221
-75.294327 -42.534733 151.143753 21 15 14
-75.294083 -42.532940 151.143326 48 45 43
-75.294067 -42.534275 151.143280 32 26 22
-75.294067 -42.534275 151.143280 32 26 22
-75.294098 -42.533951 151.143356 93 87 83
-75.294319 -42.531136 151.143845 65 119 178
-75.293861 -42.538345 151.142929 134 137 140
-75.294121 -42.534454 151.143448 26 20 19
-75.293930 -42.537292 151.143127 81 163 217
-75.294067 -42.537247 151.143463 6 76 134
-75.294067 -42.537247 151.143463 6 76 134
-75.293907 -42.538349 151.143143 31 43 49
-75.294640 -42.530888 151.144608 104 159 208
-75.293892 -42.536728 151.143112 120 196 237
-75.294250 -42.537113 151.143860 109 186 224
-75.294250 -42.537113 151.143860 109 186 224
-75.294189 -42.538616 151.143753 184 183 185
-75.294235 -42.533344 151.143921 86 78 74
-75.294235 -42.533344 151.143921 86 78 74
-75.293976 -42.536701 151.143433 33 96 153
-75.294144 -42.538628 151.143768 229 228 230
-75.294861 -42.530663 151.145233 195 226 251
-75.294083 -42.533073 151.143707 246 238 234
-75.293785 -42.533833 151.143097 40 34 29
-75.294365 -42.531597 151.144333 55 103 163
-75.294052 -42.531460 151.143875 78 136 190
-75.294083 -42.534821 151.143951 79 76 74
-75.284012 -42.532162 151.123566 81 166 217
-75.293755 -42.536648 151.143341 30 88 142
-75.293617 -42.540035 151.143066 34 104 160
-75.293617 -42.540035 151.143066 34 104 160
-75.294319 -42.537621 151.144501 15 97 151
-75.293900 -42.540726 151.143661 88 161 210
-75.294350 -42.533203 151.144577 30 30 30
-75.293793 -42.540726 151.143478 34 106 158
-75.293900 -42.538616 151.143692 111 119 121
-75.293671 -42.540417 151.143234 19 100 151
-75.294121 -42.536831 151.144150 102 162 217
-75.293983 -42.534958 151.143890 8 8 8
-75.293701 -42.536854 151.143356 135 181 232
-75.293816 -42.532436 151.143616 47 41 37
-75.293739 -42.533607 151.143433 85 77 73
-75.293846 -42.533829 151.143707 80 72 67
-75.293915 -42.537289 151.143860 90 162 215
-75.293747 -42.538689 151.143555 255 255 254
-75.293785 -42.539974 151.143616 18 90 148
-75.293785 -42.539974 151.143616 18 90 148
-75.293648 -42.536884 151.143372 34 102 144
-75.293648 -42.536884 151.143372 34 102 144
-75.293526 -42.540077 151.143143 25 79 138
-75.293571 -42.540012 151.143219 81 151 209
-75.293571 -42.540012 151.143219 81 151 209
-75.293854 -42.536861 151.143799 99 180 220
-75.293762 -42.535473 151.143661 14 91 129
-75.293877 -42.540203 151.143951 43 104 162
-75.293701 -42.540226 151.143600 27 93 146
-75.293610 -42.534119 151.143433 87 74 71
-75.293846 -42.537086 151.143936 26 90 133
-75.293846 -42.537086 151.143936 26 90 133
-75.293777 -42.536968 151.143799 136 182 234
-75.293777 -42.536968 151.143799 136 182 234
-75.293770 -42.535118 151.143814 164 226 255
-75.293808 -42.533096 151.143890 183 167 161
-75.293808 -42.533096 151.143890 183 167 161
-75.294197 -42.539074 151.144684 0 26 50
-75.293648 -42.540203 151.143600 91 159 213
-75.293831 -42.535038 151.143967 88 116 129
-75.294548 -42.537506 151.145416 132 189 233
-75.293716 -42.540298 151.143753 29 92 143
-75.293671 -42.540188 151.143677 17 84 141
-75.293671 -42.540188 151.143677 17 84 141
-75.293724 -42.535061 151.143784 138 179 200
-75.293724 -42.535061 151.143784 138 179 200
-75.293839 -42.533924 151.144028 106 98 93
-75.293686 -42.540150 151.143723 88 159 212
-75.293686 -42.540150 151.143723 88 159 212
-75.294205 -42.535130 151.144760 42 71 80
-75.294205 -42.535130 151.144760 42 71 80
-75.293907 -42.533752 151.144180 85 74 71
-75.293968 -42.537045 151.144302 39 77 135
-75.293671 -42.536877 151.143707 32 68 123
-75.293915 -42.533546 151.144211 87 76 73
-75.293251 -42.536510 151.142868 132 185 236
-75.293777 -42.534866 151.143936 55 73 78
-75.293777 -42.535130 151.143967 159 222 249
-75.293808 -42.531361 151.144043 120 155 200
-75.293648 -42.540100 151.143707 44 87 145
-75.294014 -42.535133 151.144485 153 160 164
-75.293640 -42.537743 151.143723 0 76 131
-75.293472 -42.541016 151.143402 75 128 178
-75.293472 -42.541016 151.143402 75 128 178
-75.293961 -42.537247 151.144379 139 182 234
-75.293861 -42.537186 151.144165 139 182 234
-75.293747 -42.536568 151.143967 81 166 217
-75.293602 -42.534237 151.143677 90 82 78
-75.293808 -42.534531 151.144104 97 94 92
-75.293625 -42.540695 151.143738 33 107 159
-75.293159 -42.540379 151.142807 81 155 207
-75.293808 -42.536697 151.144135 94 160 214
-75.293495 -42.536819 151.143509 124 189 229
-75.293495 -42.536819 151.143509 124 189 229
-75.293823 -42.535126 151.144196 93 192 217
-75.293716 -42.535042 151.144028 6 48 72
-75.294060 -42.536892 151.144730 30 95 145
-75.293503 -42.533154 151.143631 229 216 209
-75.293503 -42.533154 151.143631 229 216 209
-75.293610 -42.536762 151.143829 138 202 239
-75.293633 -42.541485 151.143890 83 170 215
-75.294319 -42.537521 151.145279 124 186 229
-75.293518 -42.534981 151.143677 62 173 214
-75.293404 -42.536407 151.143448 107 164 222
-75.294029 -42.537422 151.144699 27 99 151
-75.293671 -42.536648 151.144043 96 160 213
-75.294136 -42.536194 151.144943 210 235 250
-75.293526 -42.536930 151.143768 142 190 236
-75.293671 -42.531635 151.144073 177 210 244
-75.293610 -42.537197 151.143967 110 173 224
-75.293396 -42.540352 151.143570 23 95 148
-75.293549 -42.537117 151.143875 40 83 141
-75.294235 -42.535275 151.145279 105 113 121
-75.293518 -42.536991 151.143829 120 185 224
-75.293518 -42.536991 151.143829 120 185 224
-75.293373 -42.536568 151.143555 50 101 151
-75.293579 -42.536633 151.143982 81 161 209
-75.293510 -42.536552 151.143845 77 151 204
-75.293282 -42.539928 151.143402 140 196 237
-75.293587 -42.540352 151.144028 25 85 139
-75.293770 -42.536831 151.144394 147 193 236
-75.293861 -42.535053 151.144608 115 122 126
-75.293533 -42.537167 151.143951 24 97 146
-75.293480 -42.537090 151.143829 119 169 222
-75.293434 -42.540051 151.143753 77 119 160
-75.293266 -42.533409 151.143509 60 49 45
-75.294144 -42.537769 151.145264 78 167 220
-75.293755 -42.536797 151.144531 116 158 221
-75.293510 -42.534744 151.144043 179 176 174
-75.293396 -42.537373 151.143814 7 82 139
-75.293396 -42.537373 151.143814 7 82 139
-75.293228 -42.539940 151.143509 166 195 226
-75.293228 -42.539940 151.143509 166 195 226
