ply
format ascii 1.0
element vertex 1043
property float x
property float y
property float z
property uchar red
property uchar green
property uchar blue
end_header
-208.787857 -118.102974 418.059814 153 156 159
-208.792755 -118.114296 418.069641 144 147 150
-208.798691 -118.124069 418.081573 79 81 86
-208.794083 -118.113731 418.072327 85 87 92
-208.793091 -118.113014 418.070312 138 141 144
-208.798935 -118.124306 418.082062 160 163 166
-208.795914 -118.118210 418.076019 94 96 101
-208.800537 -118.127968 418.085327 77 78 79
-208.794373 -118.116417 418.072968 147 151 156
-208.797028 -118.117760 418.078308 83 86 89
-208.802902 -118.130898 418.090057 165 168 171
-208.788315 -118.103172 418.060883 94 99 102
-208.803818 -118.129921 418.091888 161 162 163
-208.802307 -118.127075 418.088898 150 153 156
-208.804016 -118.131638 418.092346 103 106 109
-208.795120 -118.115761 418.074585 165 167 172
-208.793808 -118.115196 418.071991 147 148 151
-208.796936 -118.118889 418.078217 71 73 78
-208.798340 -118.123589 418.081055 164 167 170
-208.797485 -118.120132 418.079346 143 146 149
-208.794998 -118.119865 418.074402 90 93 96
-208.792007 -118.110481 418.068390 165 167 172
-208.792007 -118.110481 418.068390 165 167 172
-208.796371 -118.119423 418.077179 82 84 89
-208.804398 -118.131927 418.093262 95 98 101
-208.792358 -118.114510 418.069214 84 85 88
-208.802597 -118.131332 418.089691 76 79 82
-208.793686 -118.113464 418.071869 143 146 149
-208.795471 -118.120079 418.075500 172 173 176
-208.800430 -118.124901 418.085419 63 66 67
-208.800430 -118.124901 418.085419 63 66 67
-208.799652 -118.124123 418.083862 184 187 190
-208.794495 -118.115883 418.073547 155 158 161
-208.796646 -118.118629 418.077881 95 99 104
-208.803207 -118.128754 418.091034 61 63 68
-208.792969 -118.110321 418.070526 164 168 173
-208.807007 -118.135422 418.098633 92 95 98
-208.790588 -118.109138 418.065796 147 152 155
-208.796097 -118.118256 418.076813 147 149 154
-208.805908 -118.135422 418.096466 92 95 98
-208.799088 -118.124840 418.082825 78 81 84
-208.795944 -118.120323 418.076538 89 90 93
-208.797562 -118.121376 418.079803 107 110 113
-208.793839 -118.115677 418.072357 94 96 101
-208.797821 -118.123276 418.080353 166 169 172
-208.795151 -118.115059 418.075012 151 155 160
-208.800903 -118.127121 418.086578 161 163 168
-208.792587 -118.111519 418.069916 100 100 105
-208.797104 -118.123589 418.078979 159 162 165
-208.789551 -118.108528 418.063873 107 111 116
-208.791687 -118.110847 418.068146 105 105 110
-208.806030 -118.134453 418.096893 86 89 92
-208.791901 -118.111099 418.068634 150 152 157
-208.788269 -118.112381 418.061371 164 167 170
-208.793335 -118.115540 418.071564 155 157 162
-208.795898 -118.117287 418.076721 177 182 185
-208.808167 -118.136688 418.101257 152 153 156
-208.795837 -118.120476 418.076630 163 166 169
-208.796341 -118.118576 418.077667 157 161 166
-208.796341 -118.118576 418.077667 157 161 166
-208.801041 -118.123749 418.087067 91 94 97
-208.794769 -118.116158 418.074524 99 102 105
-208.794769 -118.116257 418.074554 157 159 164
-208.800354 -118.126434 418.085785 166 169 172
-208.794907 -118.118378 418.074921 94 95 96
-208.792953 -118.111839 418.071014 95 98 101
-208.797760 -118.120277 418.080658 167 168 171
-208.799973 -118.123222 418.085144 174 177 180
-208.802078 -118.127083 418.089355 146 149 152
-208.807083 -118.135704 418.099396 159 162 165
-208.804108 -118.131821 418.093445 140 143 146
-208.798004 -118.121994 418.081238 73 76 79
-208.791885 -118.110245 418.068970 100 103 106
-208.800064 -118.125679 418.085388 159 162 165
-208.804733 -118.132828 418.094788 158 161 164
-208.792084 -118.111778 418.069427 136 140 145
-208.798553 -118.120506 418.082458 170 171 172
-208.796585 -118.118515 418.078491 157 160 163
-208.792419 -118.112869 418.070129 94 97 100
-208.799911 -118.120819 418.085175 87 91 96
-208.797729 -118.119781 418.080811 94 97 100
-208.799286 -118.125641 418.083984 160 163 166
-208.795105 -118.118073 418.075684 141 144 147
-208.795410 -118.116684 418.076294 150 155 158
-208.802353 -118.131905 418.090240 106 109 112
-208.797363 -118.122658 418.080231 160 163 166
-208.796631 -118.117599 418.078796 94 99 102
-208.798157 -118.123009 418.081848 69 72 75
-208.796158 -118.118629 418.077881 108 111 114
-208.799454 -118.122894 418.084503 178 183 186
-208.801834 -118.128349 418.089264 179 181 186
-208.795334 -118.117111 418.076294 81 84 87
-208.798752 -118.120598 418.083130 183 186 187
-208.798752 -118.120598 418.083130 183 186 187
-208.795486 -118.117889 418.076599 165 168 171
-208.797531 -118.123894 418.080688 145 148 151
-208.794189 -118.115921 418.074005 159 164 167
-208.800735 -118.125610 418.087158 98 103 106
-208.795944 -118.122139 418.077606 74 77 80
-208.798004 -118.121979 418.081757 88 91 94
-208.798859 -118.121330 418.083466 107 110 113
-208.799530 -118.121796 418.084839 164 167 170
-208.800919 -118.126488 418.087616 172 175 178
-208.797653 -118.122185 418.081085 85 89 94
-208.793274 -118.113571 418.072327 160 163 166
-208.794266 -118.115211 418.074341 90 93 96
-208.797958 -118.122658 418.081757 95 98 101
-208.797897 -118.121002 418.081696 86 89 92
-208.796494 -118.119308 418.078888 96 99 102
-208.794861 -118.118118 418.075623 102 105 108
-208.794861 -118.118118 418.075623 102 105 108
-208.799118 -118.120163 418.084106 157 160 163
-208.799118 -118.120163 418.084106 157 160 163
-208.789490 -118.108070 418.064850 97 101 106
-208.797775 -118.122482 418.081482 168 171 174
-208.797775 -118.122482 418.081482 168 171 174
-208.796005 -118.116562 418.077942 166 168 173
-208.798996 -118.125557 418.083954 87 89 94
-208.787186 -118.107994 418.060333 96 98 103
-208.802536 -118.130157 418.091125 151 154 157
-208.795044 -118.116547 418.076141 163 164 167
-208.794907 -118.118912 418.075836 97 100 103
-208.801071 -118.128632 418.088226 69 72 75
-208.803177 -118.132362 418.092499 147 150 153
-208.803177 -118.132362 418.092499 147 150 153
-208.800232 -118.127869 418.086578 157 160 163
-208.802139 -118.133331 418.090454 134 137 138
-208.790558 -118.108162 418.067291 147 149 154
-208.803345 -118.132973 418.092926 160 163 166
-208.801697 -118.129990 418.089600 92 95 98
-208.794495 -118.117744 418.075226 98 101 104
-208.798386 -118.124954 418.083008 154 157 160
-208.804153 -118.132668 418.094604 147 150 153
-208.794235 -118.116699 418.074707 88 91 94
-208.793808 -118.116127 418.073883 171 172 175
-208.793808 -118.116127 418.073883 171 172 175
-208.799973 -118.124496 418.086304 82 85 88
-208.799973 -118.124496 418.086304 82 85 88
-208.796890 -118.122231 418.080109 171 173 178
-208.806290 -118.137642 418.098938 160 163 166
-208.799393 -118.125404 418.085144 155 156 159
-208.795029 -118.116760 418.076416 83 86 89
-208.795029 -118.116760 418.076416 83 86 89
-208.793869 -118.115547 418.074097 90 93 96
-208.793869 -118.115547 418.074097 90 93 96
-208.793808 -118.115379 418.073975 150 153 156
-208.796707 -118.119186 418.079803 105 107 112
-208.792313 -118.110390 418.071014 152 156 161
-208.792313 -118.110390 418.071014 152 156 161
-208.792908 -118.113457 418.072235 150 153 156
-208.798355 -118.123680 418.083160 203 206 209
-208.794266 -118.116249 418.074951 169 172 175
-208.794266 -118.116249 418.074951 169 172 175
-208.798172 -118.123497 418.082855 92 95 98
-208.799835 -118.124229 418.086151 138 141 144
-208.799835 -118.124229 418.086151 138 141 144
-208.795029 -118.116043 418.076538 86 89 92
-208.801346 -118.127373 418.089233 156 161 164
-208.802689 -118.128654 418.091919 137 139 144
-208.793839 -118.116966 418.074249 92 95 98
-208.793839 -118.116966 418.074249 92 95 98
-208.802139 -118.131691 418.090820 84 86 91
-208.799149 -118.122520 418.084869 92 93 96
-208.793945 -118.116364 418.074463 83 86 89
-208.798264 -118.119240 418.083130 84 87 88
-208.799881 -118.125237 418.086426 101 103 108
-208.800568 -118.127350 418.087860 179 182 185
-208.798019 -118.124718 418.082764 138 139 142
-208.794601 -118.118980 418.075928 140 143 146
-208.791550 -118.113495 418.069824 160 160 165
-208.798782 -118.123466 418.084320 139 142 145
-208.790497 -118.111969 418.067810 136 139 142
-208.801437 -118.128448 418.089691 170 173 176
-208.803543 -118.127792 418.093903 84 87 90
-208.798691 -118.121826 418.084167 67 70 73
-208.795563 -118.117142 418.077972 95 98 101
-208.790054 -118.108604 418.066925 148 151 154
-208.796051 -118.119377 418.078979 137 140 143
-208.794464 -118.116737 418.075775 162 165 168
-208.789703 -118.107697 418.066284 160 161 164
-208.798340 -118.122017 418.083557 165 168 171
-208.797409 -118.118523 418.081696 100 102 107
-208.801147 -118.129501 418.089233 152 155 158
-208.802307 -118.131706 418.091553 146 149 152
-208.795135 -118.117409 418.077209 181 183 188
-208.805038 -118.134995 418.097076 137 140 141
-208.792496 -118.114861 418.071960 163 166 169
-208.796188 -118.119865 418.079376 81 84 87
-208.795242 -118.121742 418.077515 85 88 91
-208.803162 -118.129921 418.093384 148 151 154
-208.796219 -118.123070 418.079468 76 79 82
-208.802246 -118.131775 418.091553 91 94 97
-208.800537 -118.127106 418.088196 166 169 172
-208.799850 -118.125267 418.086823 187 190 193
-208.790207 -118.111198 418.067535 150 153 156
-208.798187 -118.122658 418.083527 146 151 154
-208.791473 -118.113503 418.070129 158 161 164
-208.802719 -118.130219 418.092651 165 168 171
-208.794846 -118.118591 418.076935 161 164 167
-208.794098 -118.115807 418.075439 91 96 99
-208.798981 -118.124588 418.085205 152 155 158
-208.800110 -118.125885 418.087463 142 145 148
-208.795792 -118.116272 418.078857 92 97 100
-208.794662 -118.112793 418.076569 87 90 98
-208.798218 -118.120811 418.083771 150 153 156
-208.794418 -118.118858 418.076233 162 165 168
-208.795303 -118.118347 418.078064 169 171 176
-208.795303 -118.118347 418.078064 169 171 176
-208.797180 -118.119934 418.081787 78 81 84
-208.797150 -118.120163 418.081757 84 87 90
-208.800018 -118.126175 418.087463 82 84 89
-208.798431 -118.122391 418.084351 96 100 105
-208.800766 -118.123184 418.089111 163 166 169
-208.791351 -118.110863 418.070282 97 102 105
-208.802094 -118.128395 418.091797 116 117 118
-208.801315 -118.128075 418.090271 163 164 165
-208.792389 -118.114807 418.072418 90 95 98
-208.795883 -118.119965 418.079407 157 160 163
-208.795883 -118.119965 418.079407 157 160 163
-208.792480 -118.113251 418.072662 97 100 103
-208.797241 -118.122490 418.082184 155 156 159
-208.795486 -118.118309 418.078674 187 189 194
-208.800873 -118.128540 418.089508 147 150 153
-208.796600 -118.122238 418.080933 88 91 94
-208.790573 -118.114273 418.068939 96 99 102
-208.804733 -118.133430 418.097290 89 92 95
-208.801529 -118.131485 418.090881 150 153 156
-208.797745 -118.122002 418.083344 98 101 104
-208.801483 -118.128448 418.090881 175 176 177
-208.798035 -118.123489 418.083984 175 180 183
-208.801636 -118.129990 418.091217 147 150 151
-208.801636 -118.129990 418.091217 147 150 151
-208.795609 -118.121971 418.079132 154 157 160
-208.797012 -118.120544 418.081940 156 159 162
-208.796783 -118.122917 418.081512 103 104 107
-208.796295 -118.120300 418.080597 95 98 101
-208.795975 -118.121307 418.079956 142 144 149
-208.796066 -118.117119 418.080170 141 144 147
-208.799118 -118.125732 418.086304 89 91 96
-208.802353 -118.129242 418.092804 151 154 157
-208.803528 -118.132301 418.095154 88 91 94
-208.803528 -118.132301 418.095154 88 91 94
-208.796906 -118.125298 418.081970 84 87 90
-208.800674 -118.131523 418.089569 162 165 168
-208.802795 -118.131866 418.093903 162 165 168
-208.795853 -118.121750 418.079926 87 88 91
-208.798248 -118.123604 418.084778 150 153 156
-208.799637 -118.126442 418.087585 92 95 96
-208.799316 -118.126350 418.086945 172 177 178
-208.798477 -118.122971 418.085297 155 156 159
-208.793823 -118.119987 418.075989 87 88 91
-208.789581 -118.109802 418.067474 96 101 104
-208.798508 -118.121002 418.085388 105 108 111
-208.798508 -118.121002 418.085388 105 108 111
-208.798462 -118.126297 418.085266 161 162 165
-208.793472 -118.115685 418.075287 140 143 146
-208.793472 -118.115685 418.075287 140 143 146
-208.794693 -118.119286 418.077759 85 88 91
-208.794693 -118.119286 418.077759 85 88 91
-208.804886 -118.133430 418.098145 146 149 152
-208.800461 -118.126648 418.089294 83 86 87
-208.797897 -118.126076 418.084198 93 93 98
-208.798294 -118.124763 418.084961 201 202 205
-208.793274 -118.115166 418.074982 158 161 164
-208.789749 -118.113312 418.067963 89 92 95
-208.794556 -118.115250 418.077606 102 104 109
-208.796158 -118.119568 418.080841 92 94 99
-208.798782 -118.127068 418.086151 169 172 175
-208.796768 -118.122253 418.082153 157 160 163
-208.799606 -118.128304 418.087830 87 90 93
-208.792816 -118.114868 418.074219 97 100 103
-208.800903 -118.128929 418.090424 173 174 177
-208.800903 -118.128929 418.090424 173 174 177
-208.796036 -118.119438 418.080688 161 163 168
-208.794373 -118.116760 418.077362 153 156 159
-208.801514 -118.129791 418.091705 191 194 197
-208.800385 -118.130165 418.089478 82 85 88
-208.802017 -118.129974 418.092743 88 89 92
-208.797714 -118.123421 418.084167 84 87 90
-208.801865 -118.129433 418.092499 90 93 96
-208.792679 -118.114571 418.074066 185 188 191
-208.795410 -118.121239 418.079590 180 183 186
-208.786575 -118.101814 418.061890 94 101 105
-208.794403 -118.117279 418.077637 161 166 169
-208.794098 -118.119118 418.076996 78 81 84
-208.800385 -118.128723 418.089630 154 155 158
-208.794754 -118.123871 418.078400 91 90 92
-208.799423 -118.126816 418.087799 96 99 102
-208.800964 -118.129387 418.090881 90 91 94
-208.793442 -118.116493 418.075836 160 163 166
-208.793442 -118.116493 418.075836 160 163 166
-208.801468 -118.127762 418.091888 188 189 190
-208.801468 -118.127762 418.091888 188 189 190
-208.800156 -118.127861 418.089294 180 181 184
-208.791733 -118.114426 418.072479 147 150 153
-208.795319 -118.114906 418.079651 180 181 184
-208.798050 -118.122902 418.085144 144 145 148
-208.801224 -118.128792 418.091553 82 85 88
-208.803116 -118.130577 418.095367 162 165 168
-208.803116 -118.130577 418.095367 162 165 168
-208.792908 -118.113022 418.074921 98 101 104
-208.791321 -118.112823 418.071747 158 161 164
-208.789215 -118.108467 418.067535 173 174 177
-208.801239 -118.134491 418.091614 149 152 155
-208.798035 -118.126579 418.085205 142 145 148
-208.791824 -118.112030 418.072784 94 97 100
-208.794785 -118.116653 418.078735 89 92 93
-208.798996 -118.126770 418.087189 159 162 165
-208.793747 -118.116524 418.076660 154 157 160
-208.803345 -118.135300 418.095917 92 97 100
-208.797058 -118.121521 418.083313 154 157 160
-208.789932 -118.111549 418.069061 109 112 115
-208.792603 -118.114876 418.074402 80 83 86
-208.799454 -118.122414 418.088196 126 127 128
-208.793518 -118.113823 418.076385 112 117 120
-208.800858 -118.131409 418.091125 96 101 104
-208.790436 -118.109863 418.070221 97 100 103
-208.804611 -118.133766 418.098633 169 170 173
-208.798523 -118.127815 418.086426 96 99 102
-208.793808 -118.117714 418.076996 78 80 85
-208.797195 -118.123772 418.083832 174 177 180
-208.796555 -118.121376 418.082550 93 96 99
-208.796555 -118.121376 418.082550 93 96 99
-208.791428 -118.113106 418.072296 167 170 171
-208.795563 -118.122757 418.080597 79 82 85
-208.789566 -118.109291 418.068604 151 154 157
-208.797836 -118.125031 418.085205 143 146 149
-208.800690 -118.129547 418.090912 93 94 97
-208.796356 -118.121895 418.082245 167 170 173
-208.788239 -118.108772 418.066040 166 168 173
-208.796906 -118.123306 418.083405 162 165 168
-208.789963 -118.110954 418.069489 87 92 95
-208.787781 -118.107895 418.065125 151 153 158
-208.804871 -118.134323 418.099335 101 104 107
-208.798203 -118.125435 418.086029 155 158 161
-208.798401 -118.124237 418.086426 83 86 89
-208.799057 -118.127907 418.087769 134 139 140
-208.790909 -118.114975 418.071472 92 95 98
-208.793915 -118.118469 418.077545 161 162 165
-208.792084 -118.115555 418.073914 155 157 162
-208.799576 -118.126190 418.088928 94 97 100
-208.803452 -118.132317 418.096680 97 98 101
-208.800644 -118.127296 418.091095 174 177 180
-208.797989 -118.124275 418.085785 138 141 144
-208.790924 -118.111977 418.071625 95 99 104
-208.799500 -118.132248 418.088806 100 103 104
-208.799500 -118.132248 418.088806 100 103 104
-208.796127 -118.128578 418.082062 86 87 90
-208.799286 -118.129280 418.088501 85 88 91
-208.790848 -118.114838 418.071625 60 64 69
-208.796616 -118.121132 418.083191 110 111 114
-208.786545 -118.104698 418.063019 166 169 172
-208.797150 -118.123596 418.084320 146 149 152
-208.796021 -118.120911 418.082092 178 181 184
-208.798996 -118.127953 418.088074 169 171 176
-208.793823 -118.118462 418.077759 90 93 96
-208.796051 -118.123840 418.082214 136 138 143
-208.795059 -118.118721 418.080261 142 143 146
-208.802765 -118.133713 418.095703 145 148 151
-208.800018 -118.131027 418.090210 151 152 155
-208.797485 -118.125595 418.085144 106 107 110
-208.802246 -118.129913 418.094727 87 90 93
-208.793411 -118.115479 418.077087 82 87 90
-208.793411 -118.115479 418.077087 82 87 90
-208.791931 -118.114922 418.074127 158 163 166
-208.791931 -118.114922 418.074127 158 163 166
-208.798340 -118.126801 418.086945 164 167 170
-208.794373 -118.117523 418.079010 181 184 187
-208.801437 -118.127098 418.093170 142 145 148
-208.799591 -118.128265 418.089539 85 88 91
-208.791824 -118.113190 418.073975 99 101 106
-208.790405 -118.110504 418.071136 153 154 162
-208.795364 -118.121178 418.081116 91 94 97
-208.795364 -118.121178 418.081116 91 94 97
-208.803238 -118.133354 418.096863 159 162 165
-208.793976 -118.116440 418.078339 82 87 90
-208.803177 -118.131355 418.096771 153 156 159
-208.795044 -118.118996 418.080505 162 163 166
-208.799683 -118.122192 418.089813 87 90 93
-208.800232 -118.130936 418.090942 89 90 91
-208.800797 -118.132095 418.092133 95 96 99
-208.789917 -118.111084 418.070343 185 188 191
-208.792435 -118.113731 418.075378 101 103 108
-208.792435 -118.113731 418.075378 101 103 108
-208.789688 -118.110863 418.069885 97 100 103
-208.788986 -118.112473 418.068481 84 87 90
-208.793274 -118.117683 418.077087 87 88 91
-208.802139 -118.130295 418.094849 161 164 167
-208.792114 -118.115204 418.074799 81 84 87
-208.792114 -118.115204 418.074799 81 84 87
-208.794556 -118.118736 418.079681 107 108 111
-208.791641 -118.113411 418.073883 155 159 164
-208.795105 -118.120117 418.080780 81 84 87
-208.795105 -118.120117 418.080780 81 84 87
-208.797516 -118.126434 418.085663 147 150 153
-208.796494 -118.122032 418.083588 85 88 91
-208.796494 -118.122032 418.083588 85 88 91
-208.795334 -118.118347 418.081299 94 95 98
-208.796661 -118.121758 418.083954 106 105 107
-208.803162 -118.133575 418.096985 145 146 149
-208.789734 -118.111122 418.070099 104 107 110
-208.803696 -118.133667 418.098053 160 165 168
-208.800629 -118.129372 418.091949 97 100 103
-208.795105 -118.119911 418.080902 143 148 151
-208.795883 -118.119431 418.082520 150 149 153
-208.798904 -118.127014 418.088593 80 83 86
-208.803757 -118.131851 418.098328 88 91 94
-208.797012 -118.120354 418.084808 92 93 96
-208.799591 -118.127319 418.090027 189 192 195
-208.794647 -118.118958 418.080139 165 166 169
-208.797806 -118.124580 418.086517 178 181 184
-208.802475 -118.131439 418.095886 94 95 98
-208.793365 -118.118568 418.077667 151 156 159
-208.798584 -118.122833 418.088135 76 77 80
-208.787613 -118.107384 418.066162 166 169 172
-208.795151 -118.118866 418.081299 89 92 95
-208.798813 -118.126129 418.088593 73 76 79
-208.800613 -118.130943 418.092255 92 95 98
-208.786758 -118.106453 418.064484 136 140 145
-208.786758 -118.106453 418.064484 136 140 145
-208.804276 -118.135483 418.099579 141 142 145
-208.803421 -118.134415 418.097900 98 101 104
-208.804489 -118.137192 418.100006 163 166 167
-208.795776 -118.122932 418.082581 71 74 75
-208.792480 -118.111389 418.076019 156 158 163
-208.790756 -118.112167 418.072601 97 99 104
-208.792419 -118.113777 418.075989 103 105 110
-208.804428 -118.133232 418.100037 153 156 159
-208.791351 -118.113487 418.073883 145 150 153
-208.795258 -118.120827 418.081696 88 89 92
-208.800247 -118.130135 418.091675 89 92 95
-208.793808 -118.119530 418.078857 84 87 90
-208.789612 -118.114685 418.070404 96 99 102
-208.789612 -118.114685 418.070404 96 99 102
-208.801224 -118.126755 418.093689 79 80 83
-208.794495 -118.118973 418.080231 162 165 168
-208.791718 -118.113533 418.074677 147 150 153
-208.791718 -118.113533 418.074677 147 150 153
-208.791397 -118.114059 418.074066 99 102 105
-208.799286 -118.126587 418.089905 69 70 73
-208.801285 -118.131607 418.093964 96 101 102
-208.784088 -118.104370 418.059570 162 166 171
-208.791550 -118.114838 418.074524 85 88 91
-208.799942 -118.129425 418.091339 87 90 93
-208.804031 -118.134270 418.099579 140 141 144
-208.793457 -118.116974 418.078430 168 171 174
-208.793457 -118.116974 418.078430 168 171 174
-208.791229 -118.111092 418.073975 150 153 156
-208.792984 -118.118645 418.077515 162 165 168
-208.793549 -118.118599 418.078613 93 98 101
-208.793549 -118.118599 418.078613 93 98 101
-208.795105 -118.120903 418.081757 197 202 205
-208.803299 -118.137329 418.098175 95 100 103
-208.790054 -118.109779 418.071686 96 99 102
-208.797913 -118.127914 418.087402 142 145 148
-208.790771 -118.112389 418.073151 139 142 145
-208.793640 -118.118950 418.078918 82 83 86
-208.793640 -118.118950 418.078918 82 83 86
-208.796051 -118.119926 418.083740 171 175 180
-208.796143 -118.122604 418.083923 109 110 113
-208.793594 -118.117790 418.078827 88 91 94
-208.789200 -118.112984 418.070099 91 96 99
-208.801758 -118.133072 418.095245 99 100 103
-208.801758 -118.133072 418.095245 99 100 103
-208.796234 -118.120995 418.084229 158 159 162
-208.796234 -118.120995 418.084229 158 159 162
-208.796387 -118.122345 418.084503 180 181 182
-208.793671 -118.118896 418.079102 164 167 170
-208.794510 -118.118080 418.080841 145 148 151
-208.798767 -118.130249 418.089355 153 156 157
-208.797440 -118.124039 418.086731 81 84 87
-208.797440 -118.124039 418.086731 81 84 87
-208.800888 -118.127647 418.093628 162 163 166
-208.800888 -118.127647 418.093628 162 163 166
-208.796112 -118.122154 418.084045 100 101 104
-208.792892 -118.117325 418.077667 91 94 97
-208.797897 -118.126488 418.087677 96 99 102
-208.794174 -118.119499 418.080231 146 151 152
-208.791306 -118.114021 418.074524 166 171 174
-208.800217 -118.126793 418.092377 86 89 92
-208.801819 -118.133064 418.095673 162 163 166
-208.799225 -118.128632 418.090485 88 91 92
-208.791031 -118.115906 418.074097 95 98 101
-208.799271 -118.128555 418.090607 143 146 147
-208.791412 -118.114426 418.074890 105 108 111
-208.791412 -118.114426 418.074890 105 108 111
-208.790695 -118.110817 418.073456 151 154 157
-208.794662 -118.120308 418.081390 160 161 162
-208.790176 -118.113892 418.072449 90 93 96
-208.793182 -118.122520 418.078491 83 86 89
-208.793182 -118.122520 418.078491 83 86 89
-208.796707 -118.126686 418.085663 174 175 176
-208.797379 -118.126785 418.087036 78 79 82
-208.796677 -118.126251 418.085632 173 174 177
-208.799133 -118.127899 418.090607 179 180 181
-208.799133 -118.127899 418.090607 179 180 181
-208.798294 -118.127502 418.088898 89 90 91
-208.791473 -118.112930 418.075256 100 105 106
-208.796906 -118.122360 418.086151 109 110 113
-208.796783 -118.122040 418.085876 73 76 79
-208.792343 -118.115227 418.077057 147 148 151
-208.796234 -118.124519 418.084839 137 140 143
-208.789886 -118.114456 418.072144 91 94 97
-208.796616 -118.124664 418.085663 76 79 82
-208.796616 -118.124664 418.085663 76 79 82
-208.793579 -118.116493 418.079620 153 156 159
-208.798660 -118.126968 418.089813 104 107 110
-208.798248 -118.126961 418.088989 101 104 105
-208.801025 -118.130508 418.094604 85 86 89
-208.796066 -118.122162 418.084656 74 75 78
-208.799103 -118.127327 418.090790 170 173 174
-208.794189 -118.118225 418.080963 145 148 151
-208.795670 -118.124786 418.083923 90 91 92
-208.795624 -118.120323 418.083832 80 82 87
-208.799942 -118.129776 418.092529 172 173 176
-208.794403 -118.119102 418.081421 85 88 91
-208.785828 -118.105270 418.064270 149 152 155
-208.796494 -118.123413 418.085693 166 169 172
-208.803680 -118.133759 418.100098 139 142 143
-208.794357 -118.127083 418.081421 142 145 148
-208.802383 -118.134331 418.097595 96 99 102
-208.800583 -118.132721 418.093933 100 103 106
-208.799072 -118.129128 418.090912 96 99 100
-208.788712 -118.107834 418.070160 153 156 159
-208.796265 -118.126305 418.085388 81 82 83
-208.796265 -118.126305 418.085388 81 82 83
-208.798813 -118.127548 418.090485 95 96 97
-208.790894 -118.113098 418.074615 92 94 99
-208.795334 -118.122261 418.083557 90 89 93
-208.789963 -118.110832 418.072784 151 154 157
-208.789017 -118.108940 418.070953 164 165 168
-208.795670 -118.123077 418.084290 97 100 103
-208.791565 -118.116234 418.076111 149 151 156
-208.794174 -118.119949 418.081299 157 158 161
-208.798080 -118.129417 418.089142 165 166 169
-208.794708 -118.118393 418.082397 89 92 95
-208.801819 -118.134018 418.096619 163 166 169
-208.797913 -118.124443 418.088867 154 157 160
-208.797913 -118.124443 418.088867 154 157 160
-208.794037 -118.121033 418.081116 84 85 88
-208.798584 -118.130280 418.090271 92 95 96
-208.798248 -118.126015 418.089569 160 163 166
-208.789764 -118.109467 418.072601 117 117 122
-208.795639 -118.120712 418.084412 160 163 166
-208.802017 -118.132133 418.097198 148 151 154
-208.797989 -118.125481 418.089172 161 162 165
-208.805344 -118.135567 418.103943 90 93 96
-208.797897 -118.127449 418.089050 168 169 170
-208.795822 -118.120041 418.084869 96 99 102
-208.794540 -118.123444 418.082306 84 87 90
-208.799347 -118.129936 418.091980 84 87 90
-208.795395 -118.120537 418.084076 82 85 88
-208.790329 -118.113121 418.073944 90 93 96
-208.792160 -118.119186 418.077667 74 77 80
-208.799484 -118.129478 418.092346 100 103 104
-208.791809 -118.117592 418.076965 91 94 97
-208.792740 -118.117828 418.078888 88 91 92
-208.800827 -118.130730 418.095062 149 150 153
-208.801437 -118.133797 418.096405 97 98 101
-208.797485 -118.123878 418.088501 138 141 144
-208.797165 -118.125954 418.087891 95 96 99
-208.798248 -118.125809 418.090027 153 154 157
-208.795258 -118.119675 418.084076 139 142 145
-208.792709 -118.113869 418.078979 102 104 109
-208.796356 -118.123375 418.086273 95 98 101
-208.790680 -118.111710 418.074951 145 150 153
-208.797485 -118.126411 418.088593 90 93 96
-208.799408 -118.130936 418.092499 153 154 155
-208.796539 -118.123734 418.086731 177 180 183
-208.796982 -118.125679 418.087677 76 79 80
-208.791077 -118.114838 418.075867 87 90 93
-208.791138 -118.114967 418.075989 163 166 169
-208.791138 -118.114967 418.075989 163 166 169
-208.796555 -118.122505 418.086853 164 165 168
-208.799500 -118.129913 418.092804 97 100 101
-208.799515 -118.128143 418.092834 71 72 73
-208.799988 -118.128136 418.093781 164 165 166
-208.797470 -118.126892 418.088776 173 174 177
-208.793900 -118.122803 418.081696 98 101 104
-208.794373 -118.121391 418.082581 93 94 97
-208.790543 -118.112480 418.075012 96 99 102
-208.790588 -118.114372 418.075104 156 159 162
-208.791565 -118.109894 418.077087 101 104 107
-208.796387 -118.124763 418.086761 85 88 91
-208.795120 -118.120827 418.084320 156 159 162
-208.795120 -118.120827 418.084320 156 159 162
-208.798401 -118.128296 418.090912 141 144 147
-208.803741 -118.132332 418.101593 166 169 172
-208.803741 -118.132332 418.101593 166 169 172
-208.788712 -118.112656 418.071564 100 101 104
-208.792664 -118.117874 418.079559 109 112 115
-208.790298 -118.114090 418.074860 157 160 163
-208.796799 -118.124573 418.087830 100 101 104
-208.790939 -118.115341 418.076172 106 109 112
-208.790939 -118.115341 418.076172 106 109 112
-208.792465 -118.115105 418.079193 152 155 158
-208.787613 -118.110184 418.069519 146 151 154
-208.789993 -118.113342 418.074341 147 148 151
-208.794312 -118.121117 418.082947 98 101 104
-208.794113 -118.123009 418.082581 145 146 149
-208.789337 -118.109787 418.072998 88 88 93
-208.790756 -118.116554 418.075928 84 87 90
-208.794449 -118.117668 418.083313 167 170 173
-208.790634 -118.115242 418.075714 163 166 169
-208.792908 -118.119125 418.080292 157 160 163
-208.796631 -118.127296 418.087799 164 165 168
-208.795212 -118.124496 418.084991 164 167 170
-208.790588 -118.116425 418.075714 173 176 179
-208.788101 -118.110779 418.070770 144 148 153
-208.792068 -118.117424 418.078827 159 162 165
-208.792068 -118.117424 418.078827 159 162 165
-208.792068 -118.117424 418.078827 159 162 165
-208.794037 -118.119476 418.082733 152 155 156
-208.803345 -118.134521 418.101471 152 155 158
-208.794464 -118.119652 418.083679 85 88 89
-208.792694 -118.118050 418.080139 85 90 91
-208.804092 -118.134583 418.102997 99 100 101
-208.798294 -118.128502 418.091400 179 180 183
-208.796463 -118.126457 418.087738 94 97 98
-208.798111 -118.130608 418.091095 183 184 187
-208.793442 -118.121979 418.081787 98 101 104
-208.791168 -118.113518 418.077209 100 105 108
-208.791168 -118.113518 418.077209 100 105 108
-208.791168 -118.113518 418.077209 100 105 108
-208.791885 -118.117332 418.078644 94 97 100
-208.791321 -118.114861 418.077545 146 149 152
-208.798706 -118.129936 418.092316 164 167 170
-208.798706 -118.129936 418.092316 164 167 170
-208.795425 -118.122459 418.085754 166 169 172
-208.797211 -118.123138 418.089355 146 149 152
-208.797195 -118.125153 418.089355 77 80 83
-208.797012 -118.126900 418.089020 143 148 151
-208.795609 -118.126389 418.086243 152 160 162
-208.795959 -118.124084 418.086914 177 180 183
-208.788589 -118.110527 418.072144 95 98 101
-208.788589 -118.110527 418.072144 95 98 101
-208.795837 -118.125580 418.086670 93 96 99
-208.792984 -118.118217 418.080994 146 149 150
-208.796341 -118.125793 418.087738 164 167 170
-208.796341 -118.125793 418.087738 164 167 170
-208.802414 -118.135590 418.099884 98 99 102
-208.792892 -118.117584 418.080872 169 174 177
-208.798386 -118.125618 418.091858 95 98 101
-208.798355 -118.130722 418.091797 176 179 182
-208.793335 -118.121956 418.081757 91 94 97
-208.795822 -118.123871 418.086792 157 162 165
-208.788910 -118.115692 418.072968 98 101 104
-208.788910 -118.115692 418.072968 98 101 104
-208.799438 -118.129417 418.094055 155 158 159
-208.799438 -118.129417 418.094055 155 158 159
-208.793396 -118.120445 418.081970 81 84 87
-208.797974 -118.125183 418.091156 89 94 97
-208.789001 -118.112442 418.073181 172 177 180
-208.790314 -118.114311 418.075836 166 169 172
-208.804901 -118.137238 418.105042 104 105 108
-208.789719 -118.113266 418.074615 147 150 153
-208.793793 -118.120399 418.082794 156 159 160
-208.798737 -118.133049 418.092712 124 127 128
-208.788834 -118.114166 418.072876 100 105 108
-208.803421 -118.133537 418.102081 103 106 109
-208.791214 -118.113403 418.077698 75 80 81
-208.788910 -118.112511 418.073059 80 84 89
-208.788452 -118.113182 418.072144 91 94 97
-208.797165 -118.126915 418.089600 101 106 109
-208.804688 -118.135345 418.104675 163 164 165
-208.793762 -118.119347 418.082855 81 83 88
-208.797943 -118.130165 418.091187 97 98 101
-208.797943 -118.130165 418.091187 97 98 101
-208.804611 -118.135506 418.104553 88 89 92
-208.797012 -118.125061 418.089417 134 135 138
-208.795273 -118.123932 418.085907 100 103 106
-208.790054 -118.111176 418.075470 155 158 161
-208.796021 -118.124199 418.087463 81 82 85
-208.792221 -118.118149 418.079895 167 170 173
-208.793839 -118.119461 418.083160 152 155 158
-208.799225 -118.131348 418.093964 87 90 93
-208.788605 -118.112282 418.072723 94 97 100
-208.794983 -118.122101 418.085480 67 68 69
-208.794983 -118.122101 418.085480 67 68 69
-208.796982 -118.128685 418.089539 85 88 91
-208.797836 -118.125801 418.091278 159 160 161
-208.795517 -118.122765 418.086670 81 84 87
-208.795517 -118.122765 418.086670 81 84 87
-208.795135 -118.123764 418.085907 180 181 184
-208.798965 -118.129898 418.093567 198 203 204
-208.798965 -118.129898 418.093567 198 203 204
-208.792053 -118.116760 418.079834 160 163 166
-208.794388 -118.121727 418.084503 162 165 166
-208.800339 -118.130058 418.096497 98 99 102
-208.795593 -118.123024 418.087006 185 188 191
-208.794769 -118.125069 418.085419 153 158 161
-208.799042 -118.129547 418.093903 106 109 110
-208.797195 -118.126534 418.090271 91 95 100
-208.796738 -118.128342 418.089355 215 216 217
-208.794235 -118.122505 418.084412 167 170 173
-208.799835 -118.134460 418.095703 97 100 103
-208.799835 -118.134460 418.095703 97 100 103
-208.799042 -118.126251 418.094086 81 84 87
-208.796600 -118.128242 418.089294 92 93 94
-208.882523 -118.110611 418.043854 136 139 140
-208.880096 -118.109322 418.039154 63 64 65
-208.881531 -118.107872 418.042084 72 73 74
-208.878235 -118.106277 418.035614 70 71 72
-208.883087 -118.110840 418.045563 157 158 159
-208.865082 -118.083893 418.009521 145 148 149
-208.879730 -118.106964 418.039062 59 60 61
-208.878632 -118.105156 418.036865 63 66 67
-208.878830 -118.107033 418.037415 66 67 70
-208.878830 -118.107033 418.037415 66 67 70
-208.877716 -118.103676 418.035248 141 142 143
-208.879166 -118.107338 418.038177 127 128 129
-208.887695 -118.119698 418.055359 123 124 125
-208.882523 -118.109726 418.045105 67 68 69
-208.882141 -118.111420 418.044678 69 72 73
-208.873825 -118.099800 418.028107 134 135 136
-208.874023 -118.100227 418.028503 48 51 52
-208.874023 -118.100227 418.028503 48 51 52
-208.875000 -118.100822 418.030670 99 102 103
-208.872543 -118.099106 418.025757 57 58 59
-208.881332 -118.113190 418.043396 53 56 57
-208.878296 -118.105003 418.037506 58 59 60
-208.880600 -118.110962 418.042175 113 114 115
-208.880600 -118.110962 418.042175 113 114 115
-208.881134 -118.111946 418.043274 127 128 129
-208.873444 -118.099709 418.028015 54 55 56
-208.878754 -118.109840 418.038696 53 54 55
-208.878754 -118.109840 418.038696 53 54 55
-208.878052 -118.105843 418.037323 60 61 62
-208.878372 -118.106155 418.038025 115 118 119
-208.881485 -118.112495 418.044281 52 55 56
-208.873138 -118.098450 418.027710 49 52 53
-208.872787 -118.098991 418.027161 124 127 128
-208.872681 -118.099503 418.027191 74 77 78
-208.872971 -118.098534 418.027832 116 119 120
-208.883362 -118.114624 418.048676 110 111 112
-208.874374 -118.100494 418.030762 142 145 146
-208.874374 -118.100494 418.030762 142 145 146
-208.874146 -118.101807 418.030334 126 127 128
-208.877396 -118.104225 418.036865 58 59 60
-208.876419 -118.103928 418.035065 124 125 126
-208.880264 -118.114197 418.042786 58 59 60
-208.877838 -118.109497 418.038147 69 70 71
-208.876038 -118.104416 418.035065 135 136 137
-208.869522 -118.095772 418.022186 135 138 139
-208.875763 -118.103432 418.034668 107 108 109
-208.874939 -118.102867 418.033051 45 46 47
-208.884247 -118.113121 418.051697 46 49 50
-208.879166 -118.110031 418.041565 123 126 127
-208.876617 -118.106033 418.036560 104 109 110
-208.876617 -118.106033 418.036560 104 109 110
-208.873245 -118.101913 418.029877 129 130 131
-208.869034 -118.093567 418.021484 126 131 132
-208.874496 -118.101578 418.032654 64 65 66
-208.874939 -118.104065 418.033630 67 68 69
-208.874481 -118.101608 418.032837 99 102 103
-208.870789 -118.097565 418.025543 116 119 120
-208.876755 -118.104980 418.037476 63 64 65
-208.880203 -118.111702 418.044556 52 53 54
-208.872665 -118.099602 418.029724 64 65 68
-208.877014 -118.107018 418.038513 121 124 125
-208.877014 -118.107018 418.038513 121 124 125
-208.876175 -118.104652 418.036926 63 64 67
-208.880768 -118.113594 418.046112 62 63 64
-208.880768 -118.113594 418.046112 62 63 64
-208.869308 -118.093094 418.023163 128 131 132
-208.877045 -118.104385 418.038940 62 63 66
-208.861877 -118.082336 418.008575 120 124 123
-208.875885 -118.104233 418.036682 49 52 53
-208.870056 -118.097504 418.025146 67 68 69
-208.876831 -118.107483 418.038788 58 59 60
-208.877640 -118.109695 418.040527 103 106 107
-208.876984 -118.107231 418.039276 69 70 71
-208.873001 -118.099815 418.031403 113 114 115
-208.877136 -118.110664 418.039795 61 62 63
-208.878204 -118.108276 418.042053 114 113 115
-208.869980 -118.095482 418.025787 122 125 128
-208.869980 -118.095482 418.025787 122 125 128
-208.873398 -118.102333 418.032654 134 137 138
-208.872620 -118.101212 418.031311 63 66 69
-208.876907 -118.109688 418.040039 107 110 113
-208.879150 -118.114037 418.044617 65 68 69
-208.874878 -118.105690 418.036194 136 139 140
-208.871979 -118.098022 418.030426 113 114 115
-208.869797 -118.096664 418.026154 141 142 143
-208.872986 -118.099861 418.032562 58 61 62
-208.868896 -118.095627 418.024384 129 132 133
-208.874023 -118.100555 418.034790 101 104 105
-208.873688 -118.105370 418.034332 55 58 59
-208.877655 -118.110039 418.042389 132 133 134
-208.876297 -118.104897 418.039886 115 116 117
-208.875183 -118.104187 418.037659 59 60 61
-208.871262 -118.099487 418.029877 118 119 120
-208.874786 -118.109398 418.037109 55 56 57
-208.875183 -118.108032 418.038147 66 69 70
-208.877335 -118.108398 418.042511 68 71 72
-208.877518 -118.108299 418.042877 59 62 63
-208.871887 -118.102821 418.031769 136 139 142
-208.874939 -118.107635 418.038025 56 59 60
-208.877365 -118.110031 418.042847 111 114 115
-208.873428 -118.102608 418.035004 120 121 122
-208.871338 -118.102760 418.031067 62 65 68
-208.873322 -118.103798 418.035095 135 138 141
-208.870667 -118.098686 418.029938 144 147 148
-208.879700 -118.110718 418.048126 72 75 76
-208.879700 -118.110718 418.048126 72 75 76
-208.872986 -118.104973 418.034760 123 126 129
-208.875671 -118.107384 418.040222 58 59 62
-208.875671 -118.107384 418.040222 58 59 62
-208.875229 -118.105614 418.039368 65 66 67
-208.875900 -118.108765 418.040955 62 63 64
-208.875153 -118.108322 418.039581 122 125 126
-208.875977 -118.110909 418.041290 67 68 71
-208.881653 -118.117294 418.052704 108 111 114
-208.876404 -118.108292 418.042206 57 58 61
-208.877747 -118.112465 418.044922 57 60 63
-208.870178 -118.101372 418.029785 54 57 60
-208.868271 -118.097122 418.025970 113 116 117
-208.868271 -118.097122 418.025970 113 116 117
-208.868927 -118.099617 418.027374 69 70 71
-208.870682 -118.101151 418.030914 72 73 74
-208.869919 -118.100998 418.029419 120 123 126
-208.870422 -118.101654 418.030426 57 60 63
-208.870422 -118.101654 418.030426 57 60 63
-208.879791 -118.115044 418.049316 115 118 121
-208.870895 -118.101372 418.031555 120 121 122
-208.870895 -118.101372 418.031555 120 121 122
-208.871429 -118.101013 418.032715 64 65 68
-208.871429 -118.101013 418.032715 64 65 68
-208.868103 -118.096489 418.026154 119 120 123
-208.876282 -118.111237 418.042725 61 64 67
-208.877625 -118.112732 418.045441 123 124 127
-208.870285 -118.100540 418.030914 115 116 119
-208.870911 -118.102379 418.032288 152 153 154
-208.869125 -118.097778 418.028717 118 121 122
-208.874542 -118.107025 418.039612 122 123 126
-208.874542 -118.107025 418.039612 122 123 126
-208.869446 -118.101501 418.029449 64 65 68
-208.873947 -118.106506 418.038513 145 148 149
-208.875793 -118.109528 418.042358 117 120 121
-208.874512 -118.107178 418.039825 128 129 132
-208.868530 -118.095970 418.027924 76 77 78
-208.877655 -118.113976 418.046204 60 63 66
-208.880020 -118.115929 418.051056 122 123 126
-208.866974 -118.099327 418.024994 121 122 125
-208.877518 -118.117348 418.046265 58 61 62
-208.867508 -118.098259 418.026276 112 113 114
-208.873398 -118.108208 418.038177 114 115 116
-208.873154 -118.105545 418.037781 144 145 146
-208.875031 -118.109848 418.041626 57 58 59
-208.869492 -118.101959 418.030518 62 65 66
-208.872498 -118.108307 418.036591 107 108 109
-208.871979 -118.103729 418.035614 132 135 138
-208.874649 -118.107040 418.041016 70 73 74
-208.864868 -118.092117 418.021454 222 225 228
-208.864868 -118.092117 418.021454 222 225 228
-208.863495 -118.091179 418.018738 82 89 93
-208.865585 -118.092743 418.023010 131 132 133
-208.869553 -118.101601 418.030975 121 122 123
-208.878479 -118.114601 418.048859 128 131 132
-208.877747 -118.115181 418.047424 107 110 111
-208.871826 -118.102493 418.035583 63 66 67
-208.865540 -118.094933 418.023010 137 138 139
-208.866867 -118.096771 418.025726 130 133 136
-208.870438 -118.104439 418.032928 121 122 123
-208.868515 -118.100418 418.029083 63 64 65
-208.868790 -118.100471 418.029694 119 122 123
-208.873230 -118.109108 418.038605 138 139 140
-208.863693 -118.092979 418.019562 109 112 115
-208.871689 -118.104225 418.035675 58 61 64
-208.865860 -118.096924 418.024048 67 68 69
-208.865570 -118.093346 418.023438 149 150 151
-208.869736 -118.099480 418.031860 127 130 131
-208.870300 -118.104683 418.033234 57 60 61
-208.870300 -118.104683 418.033234 57 60 61
-208.868484 -118.101562 418.029663 68 71 74
-208.871109 -118.104370 418.034912 134 137 138
-208.871429 -118.103210 418.035767 120 123 124
-208.871429 -118.103210 418.035767 120 123 124
-208.871796 -118.104477 418.036591 122 125 128
-208.869888 -118.101746 418.032837 65 66 67
-208.869888 -118.101746 418.032837 65 66 67
-208.871765 -118.109795 418.036743 65 66 67
-208.867767 -118.100555 418.028748 132 133 134
-208.872986 -118.106377 418.039215 68 67 69
-208.869781 -118.099091 418.032806 69 70 73
-208.871780 -118.105675 418.036957 168 169 170
-208.874146 -118.109718 418.041687 132 135 136
-208.874146 -118.109718 418.041687 132 135 136
-208.873581 -118.109428 418.040741 61 64 65
-208.874008 -118.111153 418.041595 141 144 145
-208.874008 -118.111153 418.041595 141 144 145
-208.872208 -118.104637 418.037964 71 72 73
-208.873459 -118.108223 418.040588 152 155 156
-208.880585 -118.118393 418.054840 128 131 132
-208.870041 -118.104576 418.033905 133 136 139
-208.865189 -118.095749 418.024200 137 140 143
-208.868881 -118.102882 418.031769 68 69 70
-208.868881 -118.102882 418.031769 68 69 70
-208.870010 -118.104370 418.034241 150 153 156
-208.874390 -118.111229 418.042999 152 153 154
-208.865707 -118.095642 418.025726 123 124 125
-208.876297 -118.112396 418.046997 138 139 140
-208.870193 -118.104507 418.034821 64 65 68
-208.879883 -118.119026 418.054199 141 144 147
-208.877289 -118.116333 418.049103 155 158 161
-208.878799 -118.120178 418.052185 134 139 140
-208.875961 -118.111702 418.046570 73 78 79
-208.868729 -118.101509 418.032104 66 69 72
-208.866455 -118.098572 418.027649 155 156 157
-208.869354 -118.103294 418.033478 124 125 126
-208.868271 -118.101517 418.031342 168 169 172
-208.866364 -118.098030 418.027527 121 122 123
-208.866364 -118.098030 418.027527 121 122 123
-208.865692 -118.096199 418.026184 75 78 81
-208.870529 -118.103806 418.036072 129 130 131
-208.873032 -118.106316 418.041199 71 72 73
-208.867432 -118.099678 418.030029 75 76 77
-208.870575 -118.104233 418.036316 123 124 125
-208.873642 -118.109085 418.042480 141 142 143
-208.866074 -118.097420 418.027344 70 71 72
-208.873306 -118.109306 418.041962 52 55 56
-208.864395 -118.096764 418.024200 124 125 128
-208.867859 -118.100716 418.031128 135 136 139
-208.867493 -118.098740 418.030426 131 132 135
-208.868652 -118.099075 418.032776 72 73 74
-208.871628 -118.107079 418.038879 135 136 137
-208.873657 -118.113396 418.043213 67 68 71
-208.866989 -118.099922 418.029846 112 115 118
-208.866699 -118.099937 418.029266 147 150 153
-208.865921 -118.097679 418.027740 118 121 124
-208.865143 -118.097427 418.026276 62 63 66
-208.875702 -118.114479 418.047455 73 74 77
-208.868469 -118.102654 418.032990 121 124 125
-208.867355 -118.100105 418.030762 65 68 71
-208.867355 -118.100105 418.030762 65 68 71
-208.866577 -118.099335 418.029266 51 54 55
-208.865799 -118.097610 418.027679 70 73 76
-208.863937 -118.094872 418.023987 119 122 125
-208.866440 -118.097809 418.028992 133 134 135
-208.866440 -118.097809 418.028992 133 134 135
-208.870346 -118.103691 418.036865 57 60 61
-208.877609 -118.115784 418.051453 75 76 79
-208.866455 -118.098000 418.029205 129 132 133
-208.876801 -118.116814 418.049927 112 115 118
-208.864227 -118.095116 418.024811 77 78 79
-208.877304 -118.116653 418.050995 123 128 131
-208.877304 -118.116653 418.050995 123 128 131
-208.867905 -118.101135 418.032196 125 126 127
-208.869141 -118.102516 418.034698 59 62 63
-208.865585 -118.097755 418.027557 151 154 155
-208.866623 -118.100342 418.030182 58 63 64
-208.872086 -118.106758 418.041168 77 78 79
-208.869812 -118.106369 418.036743 117 122 123
-208.869812 -118.106369 418.036743 117 122 123
-208.873199 -118.112350 418.043518 66 69 70
-208.863083 -118.095512 418.023285 113 114 115
-208.873749 -118.112251 418.044708 67 70 71
-208.868317 -118.103333 418.033844 118 119 122
-208.867889 -118.102165 418.032959 113 114 117
-208.863419 -118.099075 418.024048 70 73 74
-208.876816 -118.117584 418.050842 147 148 151
-208.864883 -118.097122 418.026978 125 128 129
-208.874741 -118.112663 418.046722 135 138 139
-208.874741 -118.112663 418.046722 135 138 139
-208.873428 -118.111122 418.044189 130 131 132
-208.863693 -118.096619 418.024719 122 123 124
-208.869919 -118.105843 418.037231 53 54 55
-208.866531 -118.101044 418.030457 53 56 57
-208.871628 -118.107460 418.040680 69 72 73
-208.875046 -118.114220 418.047577 121 124 125
-208.864838 -118.096527 418.027191 155 156 159
-208.871994 -118.109993 418.041534 119 120 123
-208.870758 -118.108650 418.039062 67 70 71
-208.868851 -118.105957 418.035492 60 63 66
-208.868851 -118.105957 418.035492 60 63 66
-208.864426 -118.099266 418.026733 71 72 73
-208.862289 -118.093781 418.022491 122 126 125
-208.864029 -118.097244 418.025970 148 149 150
-208.868179 -118.104187 418.034454 68 71 72
-208.872574 -118.113510 418.043243 115 118 119
-208.868729 -118.104439 418.035583 144 147 148
-208.869247 -118.104462 418.036652 138 139 140
-208.868011 -118.101517 418.034271 56 61 64
-208.866501 -118.101273 418.031372 79 82 85
-208.866058 -118.100021 418.030487 70 71 72
-208.863388 -118.095795 418.025299 75 78 79
-208.867783 -118.101440 418.034088 70 75 78
-208.864548 -118.098961 418.027618 144 145 146
-208.871628 -118.108322 418.041901 138 139 140
-208.862473 -118.096306 418.023682 145 146 147
-208.865067 -118.099251 418.028839 64 65 66
-208.861542 -118.093422 418.021820 141 144 147
-208.863098 -118.097610 418.025085 72 75 76
-208.871323 -118.109856 418.041687 117 118 119
-208.861969 -118.095688 418.022980 112 115 118
-208.861969 -118.095688 418.022980 112 115 118
-208.871155 -118.109474 418.041382 54 57 58
-208.869019 -118.104858 418.037140 66 67 70
-208.868286 -118.103874 418.035767 79 82 85
-208.872589 -118.112534 418.044403 153 154 157
-208.861877 -118.095070 418.023071 139 142 143
-208.865952 -118.100861 418.031250 75 78 79
-208.869217 -118.104195 418.037842 69 72 73
-208.870270 -118.108826 418.039948 59 60 61
-208.868973 -118.104866 418.037415 141 144 145
-208.862961 -118.096825 418.025421 142 145 146
-208.872009 -118.110008 418.043549 56 57 58
-208.863541 -118.097260 418.026611 70 73 74
-208.871460 -118.112167 418.042511 66 69 72
-208.872711 -118.114876 418.045166 123 124 127
-208.867050 -118.104057 418.033844 55 58 59
-208.863922 -118.096581 418.027618 122 123 124
-208.865982 -118.101303 418.031708 72 75 78
-208.873016 -118.112053 418.045898 79 80 81
-208.866669 -118.105743 418.033173 71 74 75
-208.860489 -118.093544 418.020844 79 82 83
-208.873245 -118.113640 418.046387 56 59 62
-208.874786 -118.114044 418.049500 63 66 69
-208.872345 -118.114014 418.044678 117 118 121
-208.870300 -118.110619 418.040588 124 125 126
-208.864471 -118.100327 418.029083 55 58 61
-208.863312 -118.098297 418.026794 84 87 90
-208.869522 -118.107010 418.039276 73 76 77
-208.865692 -118.098846 418.031616 74 77 78
-208.867981 -118.105453 418.036224 129 132 135
-208.864914 -118.100632 418.030151 139 142 143
-208.868301 -118.104851 418.037170 55 58 59
-208.870071 -118.107277 418.040710 139 142 143
-208.873215 -118.114372 418.046997 75 78 81
-208.866028 -118.104599 418.032715 141 144 145
-208.867065 -118.102768 418.034912 124 125 126
-208.860245 -118.095543 418.021301 75 78 81
-208.866882 -118.104790 418.034607 51 54 57
-208.865784 -118.103188 418.032410 53 56 57
-208.865784 -118.103188 418.032410 53 56 57
-208.857605 -118.090302 418.016052 119 122 123
-208.862854 -118.098831 418.026581 136 139 140
-208.860703 -118.095810 418.022369 118 121 124
-208.862778 -118.098755 418.026581 80 83 84
-208.871292 -118.108948 418.043640 70 71 72
-208.866180 -118.102318 418.033539 137 138 139
-208.863144 -118.097115 418.027466 147 150 153
-208.864105 -118.101082 418.029480 73 76 77
