ply
format ascii 1.0
element vertex 1190
property float x
property float y
property float z
property uchar red
property uchar green
property uchar blue
end_header
-0.619770 -0.349149 1.241990 48 55 59
-0.619758 -0.349130 1.241966 65 72 76
-0.619758 -0.349130 1.241966 125 132 136
-0.619780 -0.349164 1.242010 134 142 142
-0.619780 -0.349164 1.242010 134 142 142
-0.619757 -0.349129 1.241966 63 70 74
-0.619771 -0.349151 1.241995 113 122 126
-0.619767 -0.349146 1.241988 95 103 105
-0.619775 -0.349158 1.242003 112 122 124
-0.619761 -0.349137 1.241977 56 65 69
-0.619780 -0.349167 1.242016 46 56 58
-0.619760 -0.349136 1.241976 103 111 113
-0.619760 -0.349136 1.241976 57 65 67
-0.619763 -0.349141 1.241983 94 103 107
-0.619762 -0.349141 1.241982 114 122 129
-0.619773 -0.349158 1.242004 48 57 61
-0.619772 -0.349157 1.242003 111 123 124
-0.619749 -0.349122 1.241958 70 78 80
-0.619757 -0.349135 1.241975 108 117 121
-0.619764 -0.349145 1.241989 101 106 109
-0.619751 -0.349125 1.241964 110 114 119
-0.619751 -0.349125 1.241964 110 114 119
-0.619774 -0.349162 1.242011 115 124 128
-0.619768 -0.349153 1.242000 110 120 122
-0.619762 -0.349144 1.241988 46 56 58
-0.619762 -0.349145 1.241989 114 124 126
-0.619772 -0.349160 1.242010 102 112 114
-0.619772 -0.349160 1.242010 102 112 114
-0.619765 -0.349150 1.241996 107 116 120
-0.619765 -0.349149 1.241996 44 52 54
-0.619776 -0.349168 1.242020 40 49 53
-0.619767 -0.349155 1.242004 114 121 125
-0.619781 -0.349178 1.242035 103 113 115
-0.619755 -0.349138 1.241984 143 151 153
-0.619754 -0.349138 1.241983 56 64 66
-0.619763 -0.349152 1.242002 44 52 54
-0.619766 -0.349157 1.242008 119 129 131
-0.619752 -0.349134 1.241979 110 117 121
-0.619752 -0.349134 1.241979 110 117 121
-0.619786 -0.349189 1.242050 107 118 121
-0.619761 -0.349151 1.242001 120 124 129
-0.619745 -0.349125 1.241968 115 123 125
-0.619758 -0.349146 1.241995 50 58 60
-0.619759 -0.349148 1.241998 117 124 128
-0.619753 -0.349140 1.241988 136 143 147
-0.619760 -0.349152 1.242003 59 69 71
-0.619758 -0.349149 1.242000 98 106 108
-0.619767 -0.349163 1.242018 56 60 65
-0.619763 -0.349159 1.242013 98 107 111
-0.619781 -0.349186 1.242048 114 123 127
-0.619774 -0.349177 1.242037 108 118 120
-0.619774 -0.349177 1.242037 108 118 120
-0.619763 -0.349160 1.242015 57 66 70
-0.619778 -0.349182 1.242043 111 120 124
-0.619747 -0.349136 1.241985 57 67 69
-0.619744 -0.349131 1.241978 46 56 58
-0.619755 -0.349148 1.242001 104 113 117
-0.619764 -0.349162 1.242019 52 63 66
-0.619746 -0.349136 1.241985 113 121 123
-0.619749 -0.349141 1.241993 145 153 155
-0.619763 -0.349163 1.242021 98 109 112
-0.619763 -0.349163 1.242021 98 109 112
-0.619779 -0.349188 1.242054 108 119 122
-0.619762 -0.349162 1.242020 102 112 114
-0.619751 -0.349146 1.242001 103 111 113
-0.619754 -0.349152 1.242008 52 57 60
-0.619758 -0.349157 1.242015 59 70 73
-0.619748 -0.349143 1.241997 47 52 55
-0.619744 -0.349137 1.241990 60 67 71
-0.619744 -0.349137 1.241990 60 67 71
-0.619752 -0.349149 1.242006 58 68 70
-0.619751 -0.349149 1.242005 146 154 156
-0.619739 -0.349131 1.241982 119 129 131
-0.619774 -0.349185 1.242052 98 111 114
-0.619752 -0.349152 1.242010 58 66 68
-0.619769 -0.349179 1.242045 44 54 56
-0.619759 -0.349164 1.242025 44 53 57
-0.619759 -0.349164 1.242025 44 53 57
-0.619741 -0.349136 1.241989 59 66 70
-0.619745 -0.349142 1.241997 59 69 71
-0.619761 -0.349167 1.242030 110 121 124
-0.619761 -0.349167 1.242030 110 121 124
-0.619765 -0.349173 1.242038 119 127 134
-0.619765 -0.349173 1.242038 119 127 134
-0.619757 -0.349161 1.242022 105 116 119
-0.619760 -0.349166 1.242029 115 125 127
-0.619760 -0.349166 1.242030 46 57 60
-0.619765 -0.349175 1.242041 107 116 120
-0.619755 -0.349159 1.242021 58 66 68
-0.619745 -0.349145 1.242002 115 126 129
-0.619757 -0.349165 1.242030 59 69 71
-0.619741 -0.349141 1.241999 125 133 135
-0.619754 -0.349161 1.242024 55 63 65
-0.619741 -0.349141 1.241999 57 67 69
-0.619762 -0.349173 1.242040 53 60 64
-0.619750 -0.349155 1.242017 54 64 66
-0.619750 -0.349155 1.242017 54 64 66
-0.619750 -0.349155 1.242017 54 64 66
-0.619749 -0.349155 1.242017 60 68 70
-0.619738 -0.349137 1.241995 103 111 113
-0.619752 -0.349159 1.242023 105 113 115
-0.619764 -0.349178 1.242048 112 121 125
-0.619764 -0.349178 1.242048 112 121 125
-0.619754 -0.349162 1.242027 123 133 135
-0.619756 -0.349166 1.242031 114 122 124
-0.619739 -0.349140 1.241999 58 65 69
-0.619736 -0.349135 1.241992 96 103 107
-0.619736 -0.349135 1.241992 96 103 107
-0.619755 -0.349166 1.242032 101 111 111
-0.619753 -0.349162 1.242027 110 118 120
-0.619766 -0.349183 1.242054 56 65 69
-0.619753 -0.349162 1.242028 56 64 66
-0.619753 -0.349163 1.242028 124 134 136
-0.619753 -0.349163 1.242029 119 129 131
-0.619759 -0.349172 1.242040 114 124 126
-0.619754 -0.349164 1.242030 40 50 50
-0.619749 -0.349157 1.242021 103 113 115
-0.619744 -0.349150 1.242012 114 121 125
-0.619759 -0.349173 1.242042 56 66 68
-0.619752 -0.349163 1.242029 105 113 115
-0.619763 -0.349179 1.242050 56 62 69
-0.619740 -0.349145 1.242006 62 67 70
-0.619734 -0.349135 1.241994 104 115 118
-0.619767 -0.349186 1.242060 112 123 126
-0.619767 -0.349186 1.242060 112 123 126
-0.619745 -0.349153 1.242017 108 113 116
-0.619767 -0.349189 1.242064 55 64 68
-0.619745 -0.349156 1.242021 111 121 123
-0.619756 -0.349173 1.242043 63 73 75
-0.619747 -0.349159 1.242026 64 72 74
-0.619756 -0.349172 1.242043 113 123 125
-0.619771 -0.349196 1.242073 121 130 134
-0.619760 -0.349178 1.242051 112 122 124
-0.619765 -0.349188 1.242064 114 124 126
-0.619759 -0.349179 1.242053 112 120 122
-0.619738 -0.349146 1.242010 52 61 65
-0.619742 -0.349153 1.242019 49 59 61
-0.619765 -0.349188 1.242064 56 64 66
-0.619752 -0.349168 1.242038 106 117 120
-0.619764 -0.349187 1.242063 57 65 67
-0.619779 -0.349210 1.242093 137 144 148
-0.619744 -0.349158 1.242026 63 72 76
-0.619757 -0.349177 1.242051 107 114 118
-0.619733 -0.349140 1.242003 98 108 110
-0.619758 -0.349180 1.242055 113 121 123
-0.619774 -0.349205 1.242087 135 140 143
-0.619744 -0.349157 1.242025 62 71 75
-0.619736 -0.349146 1.242011 68 78 80
-0.619760 -0.349183 1.242059 105 114 118
-0.619764 -0.349190 1.242067 65 74 78
-0.619734 -0.349143 1.242008 56 64 66
-0.619736 -0.349145 1.242010 50 58 60
-0.619736 -0.349145 1.242010 50 58 60
-0.619755 -0.349176 1.242050 131 141 143
-0.619729 -0.349136 1.241999 206 125 62
-0.619732 -0.349141 1.242005 125 133 133
-0.619770 -0.349200 1.242081 132 139 143
-0.619762 -0.349186 1.242064 56 66 68
-0.619757 -0.349179 1.242055 107 116 120
-0.619769 -0.349198 1.242080 74 81 85
-0.619770 -0.349199 1.242080 134 143 147
-0.619727 -0.349133 1.241995 255 235 184
-0.619731 -0.349141 1.242005 62 61 63
-0.619757 -0.349180 1.242056 59 66 70
-0.619728 -0.349135 1.241998 255 255 224
-0.619728 -0.349135 1.241998 255 255 224
-0.619730 -0.349138 1.242002 216 136 66
-0.619728 -0.349136 1.241999 226 135 71
-0.619742 -0.349158 1.242028 127 136 140
-0.619750 -0.349171 1.242044 47 56 60
-0.619760 -0.349186 1.242064 108 119 122
-0.619752 -0.349174 1.242049 57 66 70
-0.619744 -0.349161 1.242033 66 74 76
-0.619731 -0.349142 1.242007 113 114 112
-0.619760 -0.349187 1.242065 60 72 73
-0.619729 -0.349139 1.242004 255 243 203
-0.619731 -0.349141 1.242006 255 226 178
-0.619732 -0.349144 1.242010 65 70 73
-0.619732 -0.349144 1.242010 65 70 73
-0.619731 -0.349143 1.242009 94 99 89
-0.619741 -0.349158 1.242029 66 76 78
-0.619730 -0.349140 1.242006 255 235 192
-0.619727 -0.349135 1.242000 234 135 56
-0.619730 -0.349141 1.242007 220 175 134
-0.619730 -0.349141 1.242007 220 175 134
-0.619730 -0.349141 1.242007 241 196 157
-0.619741 -0.349159 1.242030 105 115 117
-0.619728 -0.349138 1.242003 255 239 203
-0.619728 -0.349138 1.242003 255 239 203
-0.619731 -0.349143 1.242010 80 75 70
-0.619729 -0.349140 1.242006 255 225 187
-0.619750 -0.349172 1.242047 115 126 129
-0.619723 -0.349131 1.241994 252 161 97
-0.619730 -0.349142 1.242009 222 149 94
-0.619745 -0.349165 1.242038 57 65 67
-0.619726 -0.349135 1.242000 248 144 78
-0.619724 -0.349133 1.241997 228 122 46
-0.619754 -0.349179 1.242056 55 66 69
-0.619750 -0.349173 1.242049 47 56 60
-0.619750 -0.349173 1.242049 44 53 57
-0.619750 -0.349173 1.242049 44 53 57
-0.619729 -0.349141 1.242007 255 225 174
-0.619751 -0.349175 1.242052 59 68 72
-0.619718 -0.349124 1.241985 24 21 19
-0.619730 -0.349143 1.242010 255 226 181
-0.619727 -0.349138 1.242004 240 145 76
-0.619727 -0.349138 1.242004 240 145 76
-0.619749 -0.349173 1.242049 94 103 107
-0.619730 -0.349142 1.242010 222 154 106
-0.619734 -0.349149 1.242018 73 83 85
-0.619728 -0.349140 1.242007 255 236 210
-0.619740 -0.349159 1.242031 118 127 131
-0.619727 -0.349138 1.242005 235 146 85
-0.619723 -0.349132 1.241997 255 230 182
-0.619729 -0.349143 1.242010 199 142 99
-0.619727 -0.349139 1.242006 255 227 174
-0.619727 -0.349139 1.242006 255 227 174
-0.619739 -0.349158 1.242031 58 67 71
-0.619732 -0.349147 1.242016 69 73 66
-0.619731 -0.349145 1.242014 255 234 198
-0.619726 -0.349138 1.242005 255 222 172
-0.619726 -0.349138 1.242005 255 222 172
-0.619726 -0.349139 1.242006 219 147 100
-0.619727 -0.349139 1.242007 222 136 71
-0.619727 -0.349139 1.242006 255 206 151
-0.619728 -0.349141 1.242009 255 220 167
-0.619728 -0.349141 1.242009 255 220 167
-0.619770 -0.349206 1.242093 24 32 34
-0.619728 -0.349142 1.242010 240 141 78
-0.619731 -0.349146 1.242015 255 240 195
-0.619730 -0.349145 1.242014 255 238 196
-0.619771 -0.349209 1.242097 75 88 91
-0.619771 -0.349208 1.242096 227 247 252
-0.619728 -0.349142 1.242010 227 137 78
-0.619741 -0.349162 1.242036 66 75 79
-0.619726 -0.349138 1.242006 255 221 171
-0.619726 -0.349140 1.242007 235 130 61
-0.619730 -0.349146 1.242015 210 138 85
-0.619771 -0.349209 1.242097 226 246 251
-0.619727 -0.349140 1.242009 255 215 165
-0.619728 -0.349142 1.242010 255 226 170
-0.619727 -0.349141 1.242010 227 142 91
-0.619727 -0.349141 1.242010 227 142 91
-0.619730 -0.349145 1.242015 255 228 176
-0.619726 -0.349140 1.242008 226 156 108
-0.619741 -0.349163 1.242038 56 65 69
-0.619739 -0.349160 1.242034 50 58 66
-0.619729 -0.349145 1.242015 255 229 177
-0.619735 -0.349154 1.242027 52 55 56
-0.619727 -0.349141 1.242010 229 129 63
-0.619741 -0.349163 1.242038 61 69 76
-0.619745 -0.349170 1.242047 61 68 72
-0.619732 -0.349150 1.242021 72 74 69
-0.619735 -0.349153 1.242026 55 61 60
-0.619731 -0.349148 1.242019 255 200 140
-0.619738 -0.349159 1.242033 29 43 50
-0.619733 -0.349151 1.242023 96 101 102
-0.619731 -0.349148 1.242019 255 180 120
-0.619729 -0.349145 1.242014 255 236 183
-0.619725 -0.349139 1.242008 255 226 175
-0.619736 -0.349157 1.242030 112 115 118
-0.619726 -0.349141 1.242009 229 132 69
-0.619728 -0.349143 1.242013 255 219 165
-0.619728 -0.349143 1.242013 255 219 165
-0.619739 -0.349160 1.242035 237 255 255
-0.619738 -0.349159 1.242033 97 102 105
-0.619742 -0.349166 1.242042 74 88 94
-0.619726 -0.349140 1.242009 255 239 186
-0.619725 -0.349139 1.242008 255 206 161
-0.619748 -0.349175 1.242054 107 112 113
-0.619743 -0.349167 1.242044 66 81 84
-0.619727 -0.349143 1.242012 220 135 74
-0.619756 -0.349188 1.242071 135 139 133
-0.619743 -0.349168 1.242046 55 69 75
-0.619724 -0.349139 1.242007 232 141 73
-0.619746 -0.349172 1.242050 47 50 51
-0.619747 -0.349174 1.242053 88 81 73
-0.619725 -0.349139 1.242008 255 231 180
-0.619725 -0.349139 1.242008 255 231 180
-0.619725 -0.349141 1.242010 243 138 66
-0.619727 -0.349143 1.242013 224 130 63
-0.619755 -0.349187 1.242070 109 104 99
-0.619746 -0.349173 1.242052 89 74 44
-0.619721 -0.349134 1.242002 255 201 130
-0.619731 -0.349151 1.242023 65 68 69
-0.619725 -0.349141 1.242011 255 228 174
-0.619725 -0.349141 1.242011 255 228 174
-0.619726 -0.349143 1.242013 220 132 67
-0.619733 -0.349153 1.242026 108 111 112
-0.619733 -0.349153 1.242026 108 111 112
-0.619745 -0.349172 1.242051 152 126 108
-0.619726 -0.349142 1.242013 255 195 125
-0.619741 -0.349166 1.242043 59 55 55
-0.619748 -0.349177 1.242058 255 240 185
-0.619748 -0.349177 1.242058 255 240 185
-0.619752 -0.349183 1.242065 34 35 33
-0.619758 -0.349193 1.242078 255 251 193
-0.619760 -0.349196 1.242081 78 82 76
-0.619756 -0.349189 1.242073 251 178 115
-0.619758 -0.349193 1.242078 218 155 99
-0.619745 -0.349173 1.242053 255 146 80
-0.619749 -0.349180 1.242061 255 251 210
-0.619747 -0.349176 1.242056 255 187 118
-0.619745 -0.349172 1.242052 255 247 215
-0.619748 -0.349178 1.242059 232 142 76
-0.619745 -0.349174 1.242054 255 153 87
-0.619756 -0.349190 1.242074 255 232 176
-0.619739 -0.349164 1.242042 205 181 163
-0.619748 -0.349178 1.242060 224 128 68
-0.619744 -0.349172 1.242052 176 112 83
-0.619755 -0.349189 1.242074 255 205 148
-0.619740 -0.349166 1.242043 187 199 200
-0.619748 -0.349178 1.242059 255 248 210
-0.619748 -0.349178 1.242059 255 255 214
-0.619749 -0.349181 1.242063 255 247 197
-0.619714 -0.349125 1.241991 67 64 66
-0.619765 -0.349205 1.242094 229 248 248
-0.619750 -0.349181 1.242064 255 224 174
-0.619750 -0.349181 1.242064 255 224 174
-0.619760 -0.349197 1.242084 84 78 59
-0.619743 -0.349171 1.242051 200 188 181
-0.619761 -0.349198 1.242086 110 113 114
-0.619765 -0.349206 1.242096 81 93 94
-0.619723 -0.349140 1.242011 245 132 47
-0.619743 -0.349171 1.242051 176 157 148
-0.619759 -0.349197 1.242084 222 157 99
-0.619746 -0.349177 1.242058 255 244 177
-0.619721 -0.349137 1.242007 255 239 168
-0.619764 -0.349205 1.242094 74 79 76
-0.619735 -0.349159 1.242036 194 117 49
-0.619748 -0.349179 1.242061 255 251 205
-0.619748 -0.349179 1.242061 255 251 205
-0.619742 -0.349171 1.242051 56 40 34
-0.619746 -0.349177 1.242058 223 109 43
-0.619764 -0.349204 1.242094 49 54 44
-0.619764 -0.349204 1.242094 49 54 44
-0.619735 -0.349160 1.242037 255 232 173
-0.619739 -0.349166 1.242045 50 42 43
-0.619750 -0.349183 1.242067 255 247 205
-0.619721 -0.349138 1.242008 255 236 169
-0.619734 -0.349158 1.242034 255 225 170
-0.619734 -0.349158 1.242034 255 225 170
-0.619732 -0.349156 1.242031 255 252 211
-0.619728 -0.349150 1.242024 202 132 67
-0.619731 -0.349155 1.242030 255 250 215
-0.619765 -0.349207 1.242097 79 90 69
-0.619759 -0.349198 1.242086 193 144 98
-0.619729 -0.349151 1.242026 255 247 193
-0.619755 -0.349192 1.242078 255 186 127
-0.619750 -0.349184 1.242068 252 173 111
-0.619737 -0.349164 1.242042 255 170 99
-0.619719 -0.349136 1.242007 255 219 148
-0.619733 -0.349158 1.242034 221 139 63
-0.619733 -0.349158 1.242034 221 139 63
-0.619733 -0.349157 1.242034 207 147 96
-0.619759 -0.349198 1.242087 238 246 228
-0.619756 -0.349194 1.242081 228 195 168
-0.619756 -0.349194 1.242081 228 195 168
-0.619731 -0.349154 1.242030 224 139 77
-0.619731 -0.349154 1.242030 224 139 77
-0.619747 -0.349179 1.242062 255 187 131
-0.619760 -0.349200 1.242089 109 113 112
-0.619752 -0.349187 1.242072 201 122 60
-0.619733 -0.349158 1.242034 255 218 170
-0.619733 -0.349158 1.242034 255 218 170
-0.619729 -0.349152 1.242028 227 138 57
-0.619758 -0.349197 1.242085 255 242 205
-0.619759 -0.349199 1.242088 91 91 80
-0.619718 -0.349136 1.242006 224 101 31
-0.619734 -0.349160 1.242038 255 243 185
-0.619734 -0.349160 1.242038 255 243 185
-0.619730 -0.349154 1.242029 255 239 192
-0.619735 -0.349161 1.242039 226 142 85
-0.619759 -0.349198 1.242087 203 153 105
-0.619733 -0.349158 1.242035 207 142 84
-0.619758 -0.349196 1.242085 205 153 105
-0.619735 -0.349162 1.242041 255 255 214
-0.619756 -0.349195 1.242083 255 255 230
-0.619754 -0.349191 1.242077 255 255 212
-0.619754 -0.349191 1.242077 255 255 212
-0.619718 -0.349135 1.242006 255 223 155
-0.619734 -0.349160 1.242038 255 247 216
-0.619730 -0.349154 1.242030 255 236 192
-0.619763 -0.349205 1.242096 252 212 118
-0.619758 -0.349198 1.242087 214 161 111
-0.619732 -0.349158 1.242036 255 224 166
-0.619738 -0.349167 1.242047 38 38 38
-0.619757 -0.349196 1.242084 255 251 201
-0.619756 -0.349195 1.242083 179 122 72
-0.619732 -0.349157 1.242035 203 144 89
-0.619732 -0.349157 1.242035 203 144 89
-0.619730 -0.349154 1.242031 196 141 96
-0.619731 -0.349156 1.242033 239 142 68
-0.619731 -0.349156 1.242033 239 142 68
-0.619730 -0.349155 1.242032 212 148 94
-0.619723 -0.349143 1.242016 184 108 54
-0.619733 -0.349159 1.242037 241 151 81
-0.619718 -0.349136 1.242007 242 121 42
-0.619756 -0.349195 1.242083 255 236 187
-0.619729 -0.349154 1.242031 255 235 186
-0.619735 -0.349163 1.242042 246 144 74
-0.619757 -0.349197 1.242085 231 150 84
-0.619730 -0.349155 1.242032 255 230 178
-0.619755 -0.349194 1.242083 255 248 197
-0.619734 -0.349162 1.242041 241 144 87
-0.619736 -0.349164 1.242043 78 57 54
-0.619730 -0.349155 1.242031 218 163 118
-0.619758 -0.349199 1.242088 255 241 205
-0.619764 -0.349207 1.242100 90 97 94
-0.619731 -0.349157 1.242035 203 153 111
-0.619733 -0.349160 1.242039 255 249 227
-0.619746 -0.349181 1.242065 255 169 116
-0.619734 -0.349161 1.242040 255 236 183
-0.619732 -0.349159 1.242038 255 248 219
-0.619730 -0.349155 1.242033 208 156 104
-0.619728 -0.349152 1.242029 255 233 190
-0.619728 -0.349152 1.242029 255 233 190
-0.619735 -0.349163 1.242043 83 47 20
-0.619730 -0.349155 1.242033 255 247 202
-0.619733 -0.349161 1.242040 255 251 196
-0.619729 -0.349154 1.242032 255 237 189
-0.619726 -0.349150 1.242025 234 132 62
-0.619731 -0.349158 1.242036 255 240 222
-0.619711 -0.349127 1.241996 100 103 104
-0.619732 -0.349160 1.242038 237 149 95
-0.619771 -0.349220 1.242116 58 68 70
-0.619749 -0.349186 1.242072 206 113 55
-0.619748 -0.349184 1.242070 255 216 164
-0.619717 -0.349137 1.242010 242 129 49
-0.619751 -0.349189 1.242077 255 241 199
-0.619749 -0.349186 1.242073 255 246 195
-0.619749 -0.349186 1.242073 255 246 195
-0.619729 -0.349155 1.242033 255 239 217
-0.619716 -0.349136 1.242008 255 221 153
-0.619725 -0.349150 1.242026 255 233 204
-0.619759 -0.349202 1.242094 243 206 119
-0.619733 -0.349161 1.242041 255 237 183
-0.619751 -0.349190 1.242077 255 243 200
-0.619748 -0.349185 1.242072 196 129 79
-0.619729 -0.349156 1.242034 254 244 229
-0.619732 -0.349160 1.242040 219 147 78
-0.619739 -0.349172 1.242055 30 30 30
-0.619739 -0.349172 1.242055 30 30 30
-0.619751 -0.349190 1.242078 255 249 198
-0.619751 -0.349190 1.242078 255 249 198
-0.619732 -0.349161 1.242041 221 136 75
-0.619747 -0.349184 1.242070 255 242 189
-0.619770 -0.349219 1.242116 60 73 76
-0.619730 -0.349158 1.242037 241 147 80
-0.619756 -0.349199 1.242090 255 232 171
-0.619756 -0.349199 1.242090 255 232 171
-0.619750 -0.349188 1.242076 255 242 198
-0.619755 -0.349197 1.242087 239 141 74
-0.619747 -0.349185 1.242072 198 115 64
-0.619736 -0.349167 1.242049 237 255 255
-0.619724 -0.349149 1.242026 239 144 81
-0.619733 -0.349163 1.242043 60 48 41
-0.619747 -0.349184 1.242071 190 126 86
-0.619747 -0.349184 1.242071 190 126 86
-0.619738 -0.349170 1.242052 21 24 25
-0.619726 -0.349151 1.242029 255 220 193
-0.619726 -0.349151 1.242029 255 220 193
-0.619747 -0.349185 1.242072 255 230 194
-0.619747 -0.349185 1.242072 255 230 194
-0.619750 -0.349190 1.242078 255 246 197
-0.619750 -0.349189 1.242077 187 117 74
-0.619750 -0.349189 1.242077 187 117 74
-0.619748 -0.349186 1.242073 184 106 56
-0.619746 -0.349184 1.242071 255 237 186
-0.619746 -0.349184 1.242071 255 237 186
-0.619744 -0.349181 1.242067 255 189 133
-0.619748 -0.349187 1.242075 233 133 63
-0.619752 -0.349193 1.242082 181 135 94
-0.619752 -0.349193 1.242082 181 135 94
-0.619747 -0.349185 1.242072 190 119 68
-0.619730 -0.349159 1.242038 255 226 168
-0.619724 -0.349150 1.242027 255 243 222
-0.619752 -0.349192 1.242082 255 244 201
-0.619750 -0.349190 1.242079 255 249 194
-0.619729 -0.349157 1.242036 248 147 79
-0.619723 -0.349148 1.242025 255 248 197
-0.619731 -0.349161 1.242041 255 204 141
-0.619731 -0.349161 1.242041 255 204 141
-0.619736 -0.349168 1.242050 38 37 35
-0.619751 -0.349191 1.242080 235 130 61
-0.619751 -0.349191 1.242080 235 130 61
-0.619752 -0.349193 1.242083 229 143 96
-0.619752 -0.349193 1.242082 206 122 75
-0.619727 -0.349155 1.242034 247 159 107
-0.619738 -0.349172 1.242056 97 101 100
-0.619749 -0.349189 1.242077 255 255 206
-0.619751 -0.349192 1.242082 255 253 206
-0.619731 -0.349160 1.242041 224 139 78
-0.619730 -0.349160 1.242041 255 240 180
-0.619730 -0.349160 1.242041 255 240 180
-0.619749 -0.349190 1.242079 255 237 189
-0.619749 -0.349190 1.242079 255 237 189
-0.619731 -0.349161 1.242042 255 211 148
-0.619732 -0.349162 1.242043 66 38 22
-0.619713 -0.349133 1.242006 76 78 77
-0.619755 -0.349198 1.242090 255 253 244
-0.619755 -0.349198 1.242090 255 253 244
-0.619727 -0.349155 1.242035 255 240 193
-0.619727 -0.349155 1.242035 255 240 193
-0.619751 -0.349192 1.242082 205 134 89
-0.619738 -0.349172 1.242056 255 255 255
-0.619728 -0.349156 1.242036 237 148 86
-0.619728 -0.349156 1.242036 237 148 86
-0.619717 -0.349140 1.242015 204 179 157
-0.619717 -0.349140 1.242015 204 179 157
-0.619755 -0.349199 1.242091 229 150 96
-0.619726 -0.349154 1.242033 249 150 82
-0.619730 -0.349161 1.242041 255 234 177
-0.619752 -0.349194 1.242084 255 244 201
-0.619728 -0.349157 1.242037 247 143 67
-0.619728 -0.349157 1.242037 247 143 67
-0.619718 -0.349141 1.242016 48 42 37
-0.619756 -0.349200 1.242092 255 245 188
-0.619763 -0.349212 1.242108 68 73 76
-0.619727 -0.349156 1.242036 255 235 179
-0.619751 -0.349192 1.242082 255 248 194
-0.619738 -0.349172 1.242057 58 57 55
-0.619751 -0.349193 1.242084 189 118 63
-0.619717 -0.349140 1.242015 70 46 35
-0.619709 -0.349127 1.241998 85 88 91
-0.619730 -0.349161 1.242042 255 229 169
-0.619727 -0.349155 1.242035 232 144 92
-0.619728 -0.349158 1.242038 255 240 185
-0.619730 -0.349160 1.242041 213 146 90
-0.619749 -0.349190 1.242079 255 243 187
-0.619749 -0.349190 1.242079 255 243 187
-0.619768 -0.349220 1.242118 221 241 253
-0.619748 -0.349188 1.242078 204 123 73
-0.619746 -0.349185 1.242073 255 233 177
-0.619729 -0.349159 1.242040 243 139 66
-0.619731 -0.349163 1.242045 64 63 65
-0.619726 -0.349155 1.242035 255 252 197
-0.619726 -0.349155 1.242035 255 252 197
-0.619727 -0.349156 1.242036 255 232 174
-0.619735 -0.349168 1.242052 33 34 32
-0.619730 -0.349160 1.242042 230 141 79
-0.619768 -0.349220 1.242118 88 99 102
-0.619728 -0.349158 1.242038 255 242 194
-0.619745 -0.349184 1.242072 255 245 197
-0.619728 -0.349158 1.242039 255 228 184
-0.619728 -0.349158 1.242039 255 228 184
-0.619727 -0.349156 1.242036 225 147 99
-0.619753 -0.349197 1.242088 228 129 66
-0.619746 -0.349186 1.242075 255 201 151
-0.619754 -0.349198 1.242090 238 137 63
-0.619727 -0.349157 1.242037 243 142 74
-0.619728 -0.349158 1.242038 224 156 108
-0.619729 -0.349160 1.242041 255 244 199
-0.619729 -0.349160 1.242041 255 244 199
-0.619745 -0.349184 1.242072 211 134 90
-0.619715 -0.349138 1.242013 29 25 25
-0.619726 -0.349155 1.242035 255 230 173
-0.619726 -0.349156 1.242036 255 246 193
-0.619728 -0.349158 1.242039 227 141 76
-0.619728 -0.349158 1.242039 227 141 76
-0.619767 -0.349219 1.242117 255 255 254
-0.619744 -0.349184 1.242073 194 128 80
-0.619766 -0.349218 1.242116 255 251 240
-0.619747 -0.349188 1.242078 197 115 55
-0.619738 -0.349174 1.242060 132 111 92
-0.619749 -0.349192 1.242083 234 126 61
-0.619721 -0.349148 1.242026 255 197 122
-0.619727 -0.349158 1.242039 255 219 164
-0.619727 -0.349158 1.242039 255 219 164
-0.619716 -0.349141 1.242017 39 33 29
-0.619716 -0.349141 1.242017 39 33 29
-0.619744 -0.349185 1.242074 255 242 199
-0.619744 -0.349184 1.242074 231 180 142
-0.619765 -0.349217 1.242116 190 164 146
-0.619743 -0.349183 1.242072 211 135 93
-0.619744 -0.349184 1.242074 186 135 97
-0.619715 -0.349140 1.242016 189 170 137
-0.619749 -0.349192 1.242083 210 128 75
-0.619749 -0.349192 1.242083 210 128 75
-0.619749 -0.349193 1.242084 187 111 57
-0.619744 -0.349184 1.242073 255 255 213
-0.619744 -0.349185 1.242075 193 112 50
-0.619757 -0.349205 1.242100 255 248 223
-0.619717 -0.349143 1.242020 185 172 158
-0.619749 -0.349192 1.242084 255 175 123
-0.619744 -0.349185 1.242074 255 245 198
-0.619758 -0.349206 1.242102 255 255 195
-0.619746 -0.349187 1.242078 255 231 179
-0.619757 -0.349206 1.242102 255 254 205
-0.619746 -0.349188 1.242079 219 126 76
-0.619746 -0.349188 1.242079 219 126 76
-0.619746 -0.349188 1.242079 255 187 142
-0.619748 -0.349192 1.242083 182 103 53
-0.619722 -0.349151 1.242030 255 194 119
-0.619744 -0.349185 1.242075 214 111 49
-0.619743 -0.349183 1.242073 255 245 191
-0.619743 -0.349183 1.242073 255 245 191
-0.619745 -0.349188 1.242078 187 106 56
-0.619745 -0.349188 1.242078 187 106 56
-0.619757 -0.349206 1.242102 167 160 116
-0.619748 -0.349191 1.242083 255 246 190
-0.619751 -0.349196 1.242089 223 125 60
-0.619746 -0.349189 1.242080 255 243 184
-0.619758 -0.349207 1.242104 213 182 101
-0.619744 -0.349184 1.242074 167 114 76
-0.619743 -0.349184 1.242074 195 142 104
-0.619743 -0.349184 1.242074 195 142 104
-0.619723 -0.349153 1.242034 255 232 154
-0.619748 -0.349192 1.242084 176 98 50
-0.619748 -0.349192 1.242084 176 98 50
-0.619743 -0.349184 1.242074 255 231 190
-0.619763 -0.349216 1.242115 250 255 255
-0.619747 -0.349190 1.242081 225 119 43
-0.619743 -0.349185 1.242075 193 108 53
-0.619739 -0.349178 1.242067 255 232 179
-0.619739 -0.349178 1.242067 255 232 179
-0.619758 -0.349207 1.242104 201 183 107
-0.619732 -0.349168 1.242053 107 111 110
-0.619743 -0.349184 1.242074 255 241 200
-0.619758 -0.349209 1.242106 222 185 92
-0.619748 -0.349193 1.242085 255 231 177
-0.619758 -0.349207 1.242104 250 229 148
-0.619747 -0.349191 1.242083 177 106 49
-0.619747 -0.349191 1.242083 177 106 49
-0.619764 -0.349217 1.242116 95 98 99
-0.619739 -0.349179 1.242067 219 119 59
-0.619715 -0.349142 1.242020 255 241 196
-0.619729 -0.349164 1.242048 132 97 52
-0.619757 -0.349206 1.242102 182 167 105
-0.619745 -0.349187 1.242078 174 109 59
-0.619745 -0.349187 1.242078 174 109 59
-0.619748 -0.349193 1.242086 211 122 61
-0.619730 -0.349165 1.242050 184 198 199
-0.619758 -0.349208 1.242105 184 163 77
-0.619729 -0.349163 1.242047 201 129 62
-0.619729 -0.349163 1.242047 201 129 62
-0.619756 -0.349205 1.242101 169 158 95
-0.619732 -0.349169 1.242054 111 120 118
-0.619723 -0.349154 1.242035 255 146 70
-0.619730 -0.349164 1.242049 144 129 101
-0.619745 -0.349189 1.242080 255 243 191
-0.619733 -0.349170 1.242056 60 45 31
-0.619750 -0.349196 1.242090 255 245 173
-0.619713 -0.349139 1.242016 255 219 165
-0.619731 -0.349167 1.242052 210 228 230
-0.619730 -0.349165 1.242049 255 255 246
-0.619731 -0.349166 1.242051 43 48 51
-0.619748 -0.349193 1.242085 255 243 194
-0.619715 -0.349142 1.242020 218 152 98
-0.619715 -0.349142 1.242020 218 152 98
-0.619744 -0.349187 1.242078 255 241 192
-0.619744 -0.349187 1.242078 255 241 192
-0.619757 -0.349206 1.242103 228 209 136
-0.619756 -0.349205 1.242101 224 214 147
-0.619747 -0.349192 1.242085 238 157 109
-0.619750 -0.349196 1.242089 255 241 175
-0.619755 -0.349205 1.242101 181 163 81
-0.619746 -0.349190 1.242082 204 109 58
-0.619744 -0.349188 1.242079 255 225 183
-0.619748 -0.349193 1.242086 201 112 51
-0.619758 -0.349209 1.242106 188 168 85
-0.619746 -0.349191 1.242083 255 225 179
-0.619756 -0.349205 1.242102 150 140 63
-0.619713 -0.349139 1.242016 203 127 73
-0.619747 -0.349192 1.242085 255 238 193
-0.619744 -0.349187 1.242079 178 123 78
-0.619744 -0.349187 1.242079 178 123 78
-0.619749 -0.349195 1.242089 255 219 151
-0.619715 -0.349143 1.242021 255 231 189
-0.619746 -0.349190 1.242082 255 226 172
-0.619754 -0.349203 1.242099 189 161 70
-0.619754 -0.349203 1.242099 189 161 70
-0.619763 -0.349217 1.242117 108 113 114
-0.619744 -0.349188 1.242080 255 230 185
-0.619730 -0.349166 1.242052 255 253 245
-0.619718 -0.349147 1.242027 60 29 22
-0.619758 -0.349209 1.242107 235 218 134
-0.619743 -0.349187 1.242078 255 230 178
-0.619743 -0.349187 1.242078 255 230 178
-0.619757 -0.349208 1.242106 183 174 89
-0.619715 -0.349143 1.242021 231 143 78
-0.619732 -0.349170 1.242057 253 252 254
-0.619762 -0.349216 1.242116 215 211 163
-0.619715 -0.349144 1.242023 255 241 198
-0.619715 -0.349144 1.242023 255 241 198
-0.619723 -0.349157 1.242040 83 38 23
-0.619758 -0.349210 1.242109 183 173 84
-0.619756 -0.349208 1.242106 182 163 71
-0.619723 -0.349156 1.242039 55 29 24
-0.619717 -0.349148 1.242028 73 73 67
-0.619754 -0.349205 1.242102 185 168 84
-0.619762 -0.349217 1.242117 88 94 87
-0.619717 -0.349147 1.242028 167 125 90
-0.619739 -0.349181 1.242072 106 53 13
-0.619717 -0.349148 1.242028 251 245 234
-0.619715 -0.349145 1.242025 225 145 93
-0.619718 -0.349149 1.242031 243 255 254
-0.619723 -0.349157 1.242041 250 253 255
-0.619723 -0.349157 1.242041 250 253 255
-0.619725 -0.349160 1.242044 36 31 27
-0.619716 -0.349146 1.242026 255 239 205
-0.619716 -0.349146 1.242026 255 239 205
-0.619716 -0.349146 1.242026 255 239 205
-0.619761 -0.349216 1.242117 238 208 132
-0.619755 -0.349208 1.242106 169 152 68
-0.619743 -0.349189 1.242082 82 55 23
-0.619743 -0.349189 1.242082 82 55 23
-0.619716 -0.349148 1.242029 255 219 187
-0.619730 -0.349169 1.242056 255 255 188
-0.619753 -0.349205 1.242103 178 154 65
-0.619756 -0.349209 1.242108 237 219 129
-0.619756 -0.349209 1.242108 237 219 129
-0.619715 -0.349146 1.242027 236 154 91
-0.619716 -0.349147 1.242029 255 223 181
-0.619755 -0.349209 1.242108 190 167 76
-0.619717 -0.349149 1.242031 105 85 72
-0.619755 -0.349208 1.242107 179 163 76
-0.619712 -0.349142 1.242023 255 251 238
-0.619736 -0.349180 1.242071 255 223 131
-0.619714 -0.349145 1.242026 247 155 91
-0.619760 -0.349216 1.242118 101 98 87
-0.619734 -0.349176 1.242067 255 240 232
-0.619740 -0.349185 1.242078 189 172 128
-0.619715 -0.349147 1.242029 255 223 188
-0.619715 -0.349147 1.242029 255 223 188
-0.619737 -0.349180 1.242072 255 255 208
-0.619741 -0.349187 1.242081 72 55 32
-0.619714 -0.349146 1.242028 231 152 96
-0.619736 -0.349180 1.242072 213 188 156
-0.619738 -0.349183 1.242076 151 122 78
-0.619755 -0.349209 1.242109 210 186 97
-0.619715 -0.349148 1.242030 255 224 186
-0.619703 -0.349129 1.242006 31 29 29
-0.619737 -0.349181 1.242074 136 114 81
-0.619735 -0.349179 1.242070 255 254 255
-0.619738 -0.349184 1.242077 251 252 250
-0.619736 -0.349181 1.242073 255 253 239
-0.619714 -0.349146 1.242028 255 202 142
-0.619714 -0.349146 1.242028 255 202 142
-0.619735 -0.349179 1.242071 182 168 164
-0.619736 -0.349180 1.242072 178 180 179
-0.619713 -0.349144 1.242026 255 209 152
-0.619715 -0.349147 1.242029 255 218 178
-0.619711 -0.349142 1.242023 252 158 93
-0.619712 -0.349144 1.242025 255 214 162
-0.619740 -0.349186 1.242080 253 255 253
-0.619737 -0.349182 1.242074 140 116 98
-0.619738 -0.349183 1.242077 239 219 196
-0.619740 -0.349186 1.242080 254 255 255
-0.619712 -0.349143 1.242025 255 227 179
-0.619736 -0.349181 1.242073 255 251 236
-0.619739 -0.349186 1.242080 207 196 187
-0.619744 -0.349193 1.242090 186 137 55
-0.619762 -0.349222 1.242126 158 166 168
-0.619754 -0.349209 1.242110 204 189 127
-0.619757 -0.349214 1.242116 255 220 137
-0.619712 -0.349144 1.242026 221 149 102
-0.619739 -0.349186 1.242080 255 247 231
-0.619729 -0.349171 1.242061 255 225 122
-0.619729 -0.349171 1.242061 255 225 122
-0.619719 -0.349155 1.242040 41 36 38
-0.619755 -0.349211 1.242112 255 249 207
-0.619755 -0.349211 1.242112 255 249 207
-0.619714 -0.349147 1.242030 228 138 90
-0.619712 -0.349145 1.242027 255 209 155
-0.619715 -0.349149 1.242032 224 159 121
-0.619740 -0.349187 1.242082 255 251 211
-0.619755 -0.349211 1.242113 255 247 208
-0.619741 -0.349190 1.242085 255 246 155
-0.619763 -0.349224 1.242129 174 178 183
-0.619716 -0.349150 1.242034 221 206 198
-0.619711 -0.349144 1.242026 255 221 175
-0.619717 -0.349153 1.242038 62 64 63
-0.619736 -0.349182 1.242075 98 62 17
-0.619736 -0.349182 1.242076 91 54 11
-0.619715 -0.349149 1.242033 255 201 171
-0.619740 -0.349188 1.242084 249 159 75
-0.619714 -0.349148 1.242032 255 233 201
-0.619712 -0.349145 1.242028 242 146 75
-0.619712 -0.349145 1.242028 242 146 75
-0.619742 -0.349192 1.242089 255 255 186
-0.619741 -0.349190 1.242087 255 249 156
-0.619709 -0.349141 1.242023 252 141 66
-0.619711 -0.349144 1.242026 249 142 70
-0.619690 -0.349112 1.241986 225 243 248
-0.619711 -0.349145 1.242028 255 204 150
-0.619715 -0.349150 1.242035 122 68 32
-0.619716 -0.349153 1.242038 234 235 236
-0.619706 -0.349137 1.242019 255 215 147
-0.619712 -0.349145 1.242029 237 162 111
-0.619726 -0.349169 1.242059 255 252 221
-0.619726 -0.349169 1.242059 255 252 221
-0.619725 -0.349166 1.242056 255 255 187
-0.619743 -0.349195 1.242093 255 255 198
-0.619710 -0.349144 1.242027 255 226 172
-0.619712 -0.349146 1.242030 255 220 170
-0.619712 -0.349147 1.242031 255 218 158
-0.619719 -0.349158 1.242045 43 44 45
-0.619744 -0.349196 1.242094 255 255 195
-0.619710 -0.349144 1.242027 255 202 158
-0.619692 -0.349117 1.241992 87 93 100
-0.619710 -0.349145 1.242028 255 227 177
-0.619744 -0.349197 1.242096 255 255 201
-0.619711 -0.349146 1.242030 242 141 73
-0.619714 -0.349150 1.242035 255 196 147
-0.619713 -0.349149 1.242034 255 219 167
-0.619709 -0.349143 1.242027 255 234 184
-0.619709 -0.349143 1.242027 255 234 184
-0.619716 -0.349154 1.242041 67 56 53
-0.619753 -0.349212 1.242116 97 92 78
-0.619714 -0.349151 1.242037 228 174 138
-0.619748 -0.349203 1.242104 255 223 120
-0.619715 -0.349153 1.242039 245 253 253
-0.619713 -0.349150 1.242036 255 185 142
-0.619720 -0.349160 1.242049 60 49 39
-0.619720 -0.349160 1.242049 60 49 39
-0.619714 -0.349152 1.242038 235 194 168
-0.619712 -0.349149 1.242034 219 141 91
-0.619711 -0.349146 1.242031 255 202 137
-0.619737 -0.349187 1.242084 255 212 167
-0.619737 -0.349187 1.242084 255 212 167
-0.619711 -0.349147 1.242033 255 183 123
-0.619712 -0.349149 1.242035 255 192 139
-0.619746 -0.349202 1.242103 255 255 202
-0.619712 -0.349149 1.242034 255 199 146
-0.619705 -0.349138 1.242020 255 225 150
-0.619713 -0.349151 1.242037 192 97 44
-0.619723 -0.349166 1.242056 255 215 127
-0.619709 -0.349145 1.242030 255 209 150
-0.619709 -0.349145 1.242030 255 209 150
-0.619710 -0.349147 1.242032 227 131 66
-0.619710 -0.349147 1.242032 227 131 66
-0.619705 -0.349139 1.242022 255 143 73
-0.619710 -0.349146 1.242031 255 218 168
-0.619709 -0.349146 1.242031 255 187 129
-0.619718 -0.349160 1.242050 124 87 67
-0.619715 -0.349155 1.242044 208 162 121
-0.619749 -0.349209 1.242113 255 255 176
-0.619749 -0.349209 1.242113 255 255 176
-0.619700 -0.349132 1.242014 37 31 30
-0.619700 -0.349132 1.242014 37 31 30
-0.619720 -0.349163 1.242054 243 233 210
-0.619751 -0.349211 1.242116 93 97 91
-0.619714 -0.349155 1.242044 255 222 178
-0.619715 -0.349156 1.242045 240 174 126
-0.619750 -0.349211 1.242115 108 100 71
-0.619719 -0.349162 1.242053 126 80 43
-0.619693 -0.349122 1.242001 38 32 31
-0.619715 -0.349156 1.242046 255 215 166
-0.619715 -0.349158 1.242048 255 192 140
-0.619749 -0.349211 1.242116 226 161 105
-0.619735 -0.349188 1.242087 255 229 184
-0.619749 -0.349210 1.242116 139 101 65
-0.619695 -0.349127 1.242009 225 132 72
-0.619719 -0.349164 1.242056 102 93 83
-0.619736 -0.349191 1.242090 255 220 204
-0.619717 -0.349162 1.242053 147 86 40
-0.619717 -0.349162 1.242053 147 86 40
-0.619721 -0.349167 1.242060 255 224 149
-0.619736 -0.349191 1.242091 255 255 229
-0.619736 -0.349191 1.242091 255 255 229
-0.619737 -0.349192 1.242093 255 211 141
-0.619739 -0.349195 1.242097 66 39 29
-0.619750 -0.349212 1.242119 247 171 115
-0.619719 -0.349164 1.242057 136 121 101
-0.619748 -0.349210 1.242115 118 86 62
-0.619718 -0.349163 1.242055 112 71 41
-0.619720 -0.349166 1.242059 167 162 148
-0.619750 -0.349212 1.242119 132 70 28
-0.619720 -0.349167 1.242060 219 216 206
-0.619728 -0.349179 1.242077 43 40 38
-0.619720 -0.349166 1.242059 255 251 188
-0.619721 -0.349168 1.242062 255 255 245
-0.619721 -0.349168 1.242062 255 255 245
-0.619714 -0.349157 1.242048 255 255 232
-0.619748 -0.349211 1.242117 90 65 43
-0.619748 -0.349210 1.242117 154 119 96
-0.619748 -0.349210 1.242116 101 54 20
-0.619710 -0.349151 1.242040 255 255 231
-0.619749 -0.349212 1.242119 202 148 112
-0.619719 -0.349166 1.242059 254 197 116
-0.619750 -0.349213 1.242120 149 85 39
-0.619749 -0.349212 1.242119 94 49 22
-0.619746 -0.349208 1.242114 125 72 22
-0.619751 -0.349215 1.242123 232 155 101
-0.619750 -0.349215 1.242123 255 234 180
-0.619747 -0.349209 1.242116 220 158 116
-0.619745 -0.349206 1.242112 127 73 43
-0.619737 -0.349194 1.242096 142 74 33
-0.619752 -0.349218 1.242127 154 157 158
-0.619716 -0.349162 1.242055 180 106 43
-0.619698 -0.349134 1.242018 115 65 31
-0.619716 -0.349161 1.242054 255 201 138
-0.619748 -0.349212 1.242119 212 160 118
-0.619748 -0.349212 1.242119 212 160 118
-0.619749 -0.349213 1.242121 148 72 30
-0.619749 -0.349213 1.242120 112 74 58
-0.619749 -0.349213 1.242120 112 74 58
-0.619747 -0.349209 1.242116 200 153 119
-0.619748 -0.349212 1.242119 211 172 139
-0.619744 -0.349206 1.242111 199 152 127
-0.619745 -0.349207 1.242112 106 64 45
-0.619747 -0.349210 1.242117 200 161 141
-0.619737 -0.349194 1.242097 137 81 45
-0.619715 -0.349160 1.242052 255 248 204
-0.619745 -0.349206 1.242112 171 128 104
-0.619737 -0.349195 1.242098 170 99 50
-0.619696 -0.349131 1.242015 255 196 145
-0.619716 -0.349162 1.242055 255 197 130
-0.619716 -0.349162 1.242055 255 197 130
-0.619746 -0.349209 1.242116 221 159 113
-0.619748 -0.349213 1.242120 113 66 23
-0.619717 -0.349163 1.242057 233 147 76
-0.619698 -0.349135 1.242020 247 201 164
-0.619736 -0.349194 1.242096 255 218 186
-0.619736 -0.349194 1.242096 255 218 186
-0.619737 -0.349195 1.242097 255 237 204
-0.619746 -0.349209 1.242115 224 154 101
-0.619737 -0.349196 1.242098 255 194 147
-0.619745 -0.349208 1.242114 228 160 117
-0.619709 -0.349152 1.242042 255 253 234
-0.619737 -0.349195 1.242098 197 126 81
-0.619700 -0.349138 1.242025 255 218 175
-0.619699 -0.349136 1.242022 234 203 188
-0.619747 -0.349211 1.242119 103 56 31
-0.619723 -0.349173 1.242070 255 228 140
-0.619709 -0.349151 1.242042 63 50 47
-0.619745 -0.349208 1.242114 228 174 138
-0.619745 -0.349208 1.242115 151 85 45
-0.619745 -0.349208 1.242115 151 85 45
-0.619700 -0.349137 1.242023 243 208 193
-0.619747 -0.349211 1.242118 240 162 120
-0.619700 -0.349138 1.242025 237 178 141
-0.619740 -0.349200 1.242105 255 253 237
-0.619752 -0.349219 1.242129 87 97 99
-0.619741 -0.349201 1.242106 185 111 71
-0.619745 -0.349208 1.242115 154 93 54
-0.619745 -0.349208 1.242115 154 93 54
-0.619744 -0.349207 1.242113 106 86 73
-0.619748 -0.349213 1.242121 136 67 17
-0.619697 -0.349133 1.242018 120 71 40
-0.619747 -0.349212 1.242120 217 145 98
-0.619747 -0.349212 1.242120 217 145 98
-0.619747 -0.349212 1.242120 217 145 98
-0.619709 -0.349153 1.242044 134 72 43
-0.619700 -0.349138 1.242024 163 119 90
-0.619715 -0.349163 1.242056 216 136 70
-0.619751 -0.349218 1.242128 242 251 249
-0.619748 -0.349213 1.242122 255 199 149
-0.619717 -0.349165 1.242059 255 190 128
-0.619708 -0.349151 1.242042 251 254 255
-0.619733 -0.349190 1.242091 255 202 131
-0.619698 -0.349135 1.242021 216 139 83
-0.619716 -0.349163 1.242057 255 228 170
-0.619680 -0.349107 1.241985 38 41 44
-0.619743 -0.349206 1.242113 255 253 249
-0.619746 -0.349211 1.242118 116 54 8
-0.619735 -0.349194 1.242097 214 129 74
-0.619749 -0.349215 1.242124 60 48 41
-0.619716 -0.349165 1.242059 255 197 138
-0.619735 -0.349194 1.242097 167 78 22
-0.619748 -0.349213 1.242122 255 197 148
-0.619714 -0.349162 1.242055 255 240 195
-0.619753 -0.349221 1.242132 123 113 106
-0.619696 -0.349133 1.242018 117 76 48
-0.619697 -0.349134 1.242020 220 138 78
-0.619697 -0.349134 1.242020 220 138 78
-0.619746 -0.349211 1.242119 114 62 26
-0.619728 -0.349182 1.242082 75 46 20
-0.619754 -0.349223 1.242134 248 255 255
-0.619746 -0.349211 1.242119 114 62 26
-0.619715 -0.349162 1.242056 212 152 117
-0.619714 -0.349161 1.242054 234 141 80
-0.619701 -0.349141 1.242029 255 186 126
-0.619745 -0.349210 1.242118 205 140 102
-0.619680 -0.349109 1.241988 234 248 254
-0.619680 -0.349109 1.241988 234 248 254
-0.619736 -0.349196 1.242099 179 123 82
-0.619714 -0.349162 1.242056 252 198 162
-0.619752 -0.349220 1.242131 219 220 218
-0.619745 -0.349209 1.242118 106 70 43
-0.619745 -0.349209 1.242118 106 70 43
-0.619714 -0.349161 1.242056 255 224 190
-0.619714 -0.349161 1.242056 255 224 190
-0.619746 -0.349211 1.242120 92 36 0
-0.619713 -0.349161 1.242055 255 241 193
-0.619713 -0.349161 1.242055 255 241 193
-0.619696 -0.349133 1.242019 158 92 38
-0.619745 -0.349210 1.242119 115 81 70
-0.619735 -0.349195 1.242099 104 45 6
-0.619733 -0.349192 1.242095 255 169 97
-0.619714 -0.349162 1.242057 208 146 102
-0.619699 -0.349138 1.242026 233 145 73
-0.619699 -0.349138 1.242026 233 145 73
-0.619697 -0.349136 1.242023 227 146 84
-0.619746 -0.349212 1.242120 240 161 111
-0.619734 -0.349194 1.242097 156 77 23
-0.619688 -0.349122 1.242005 32 31 29
-0.619734 -0.349193 1.242097 255 204 142
-0.619752 -0.349221 1.242133 249 245 237
-0.619734 -0.349194 1.242098 202 124 76
-0.619745 -0.349211 1.242120 100 40 10
-0.619751 -0.349220 1.242131 194 174 157
-0.619745 -0.349211 1.242120 93 58 44
-0.619734 -0.349194 1.242098 201 123 75
-0.619698 -0.349138 1.242025 129 76 43
-0.619746 -0.349212 1.242121 255 188 132
-0.619734 -0.349194 1.242098 158 79 23
-0.619745 -0.349212 1.242121 255 213 157
-0.619748 -0.349216 1.242127 38 36 36
-0.619694 -0.349132 1.242019 114 69 37
-0.619694 -0.349132 1.242019 114 69 37
-0.619750 -0.349220 1.242131 192 160 136
-0.619695 -0.349134 1.242021 137 73 33
-0.619744 -0.349209 1.242118 125 79 50
-0.619697 -0.349137 1.242025 130 80 46
-0.619716 -0.349166 1.242062 218 138 72
-0.619744 -0.349209 1.242118 116 65 33
-0.619698 -0.349138 1.242027 207 148 103
-0.619698 -0.349138 1.242027 207 148 103
-0.619699 -0.349140 1.242029 130 76 46
-0.619714 -0.349164 1.242060 255 221 158
-0.619714 -0.349164 1.242060 255 221 158
-0.619743 -0.349209 1.242118 180 128 92
-0.619743 -0.349209 1.242118 180 128 92
-0.619733 -0.349194 1.242098 237 148 92
-0.619744 -0.349210 1.242119 216 157 112
-0.619716 -0.349166 1.242062 255 209 161
-0.619744 -0.349210 1.242119 116 54 8
-0.619713 -0.349162 1.242058 255 244 197
-0.619712 -0.349161 1.242056 220 148 101
-0.619712 -0.349161 1.242056 220 148 101
-0.619727 -0.349183 1.242085 226 195 110
-0.619716 -0.349167 1.242063 229 175 133
-0.619694 -0.349133 1.242021 219 138 81
-0.619694 -0.349133 1.242021 219 138 81
-0.619712 -0.349160 1.242055 255 237 204
-0.619712 -0.349161 1.242057 255 235 198
-0.619731 -0.349191 1.242094 234 134 68
-0.619681 -0.349112 1.241993 90 87 89
-0.619708 -0.349155 1.242049 146 89 56
-0.619738 -0.349201 1.242107 255 227 176
-0.619738 -0.349201 1.242107 255 227 176
-0.619731 -0.349191 1.242095 255 236 172
-0.619740 -0.349204 1.242112 206 124 69
-0.619699 -0.349141 1.242030 145 77 36
-0.619712 -0.349161 1.242056 214 173 143
-0.619739 -0.349203 1.242110 255 255 215
-0.619711 -0.349160 1.242055 242 209 189
-0.619697 -0.349137 1.242026 236 155 98
-0.619697 -0.349137 1.242026 236 155 98
-0.619713 -0.349163 1.242058 246 212 177
-0.619710 -0.349158 1.242052 255 235 222
-0.619714 -0.349164 1.242061 211 144 92
-0.619693 -0.349132 1.242019 221 140 83
-0.619752 -0.349223 1.242136 205 130 69
-0.619709 -0.349157 1.242051 226 175 151
-0.619749 -0.349219 1.242131 102 63 29
-0.619729 -0.349188 1.242091 255 203 125
-0.619711 -0.349160 1.242055 245 253 255
-0.619711 -0.349160 1.242055 245 253 255
-0.619709 -0.349157 1.242052 147 98 77
-0.619753 -0.349226 1.242140 255 232 176
-0.619686 -0.349122 1.242006 36 33 31
-0.619713 -0.349164 1.242060 219 166 128
-0.619730 -0.349190 1.242094 255 195 135
-0.619713 -0.349163 1.242059 255 235 203
-0.619695 -0.349136 1.242024 219 155 109
-0.619714 -0.349164 1.242061 255 230 180
-0.619749 -0.349220 1.242132 181 153 137
-0.619750 -0.349220 1.242133 250 254 253
-0.619700 -0.349143 1.242033 207 134 79
-0.619696 -0.349137 1.242025 139 102 86
-0.619712 -0.349162 1.242058 232 224 219
-0.619748 -0.349219 1.242131 179 126 86
-0.619753 -0.349225 1.242140 222 146 90
-0.619715 -0.349167 1.242064 208 124 69
-0.619709 -0.349158 1.242053 255 211 180
-0.619717 -0.349169 1.242068 79 52 34
-0.619710 -0.349159 1.242054 186 114 84
-0.619708 -0.349157 1.242051 239 180 148
-0.619693 -0.349132 1.242020 124 79 52
-0.619694 -0.349135 1.242024 148 103 84
-0.619752 -0.349225 1.242139 255 242 197
-0.619712 -0.349163 1.242059 157 137 124
-0.619704 -0.349150 1.242042 42 39 37
-0.619704 -0.349150 1.242042 42 39 37
-0.619730 -0.349191 1.242095 255 165 98
-0.619744 -0.349213 1.242124 199 126 75
-0.619751 -0.349224 1.242138 255 255 220
-0.619700 -0.349145 1.242036 246 155 87
-0.619723 -0.349180 1.242082 255 249 197
-0.619723 -0.349180 1.242082 255 249 197
-0.619710 -0.349160 1.242056 171 112 80
-0.619746 -0.349216 1.242127 255 255 205
-0.619746 -0.349216 1.242127 255 255 205
-0.619733 -0.349195 1.242101 210 110 51
-0.619710 -0.349160 1.242055 252 162 114
-0.619710 -0.349160 1.242055 252 162 114
-0.619712 -0.349163 1.242060 152 127 105
-0.619755 -0.349230 1.242146 240 163 109
-0.619756 -0.349231 1.242148 174 109 59
-0.619683 -0.349119 1.242003 250 255 255
-0.619683 -0.349119 1.242003 250 255 255
-0.619693 -0.349135 1.242023 255 247 241
-0.619757 -0.349233 1.242150 242 165 109
-0.619711 -0.349163 1.242060 255 235 205
-0.619711 -0.349163 1.242060 255 235 205
-0.619714 -0.349167 1.242066 250 255 255
-0.619714 -0.349167 1.242066 250 255 255
-0.619756 -0.349233 1.242150 242 167 116
-0.619698 -0.349141 1.242032 193 149 130
-0.619712 -0.349164 1.242062 255 220 190
-0.619733 -0.349197 1.242105 218 124 76
-0.619713 -0.349165 1.242063 167 125 97
-0.619711 -0.349163 1.242060 196 135 103
-0.619747 -0.349219 1.242132 255 255 219
-0.619749 -0.349222 1.242136 255 237 184
-0.619685 -0.349122 1.242007 226 150 96
-0.619734 -0.349198 1.242106 255 251 235
-0.619756 -0.349233 1.242150 125 73 31
-0.619745 -0.349215 1.242128 255 244 205
-0.619753 -0.349228 1.242145 127 78 50
-0.619759 -0.349238 1.242157 99 101 100
-0.619717 -0.349173 1.242073 254 214 136
-0.619694 -0.349137 1.242028 248 149 86
-0.619711 -0.349163 1.242061 255 195 149
-0.619731 -0.349195 1.242102 248 147 95
-0.619683 -0.349120 1.242006 255 143 83
-0.619697 -0.349141 1.242033 180 103 59
-0.619711 -0.349164 1.242062 184 107 55
-0.619751 -0.349226 1.242142 252 255 255
-0.619713 -0.349167 1.242066 171 93 45
-0.619692 -0.349135 1.242024 149 86 44
-0.619718 -0.349174 1.242075 135 123 105
-0.619756 -0.349234 1.242152 123 83 41
-0.619711 -0.349163 1.242061 190 102 48
-0.619747 -0.349219 1.242133 255 183 112
-0.619759 -0.349239 1.242159 250 255 255
-0.619729 -0.349191 1.242097 221 120 47
-0.619705 -0.349155 1.242051 229 219 206
-0.619728 -0.349191 1.242097 255 244 163
-0.619723 -0.349182 1.242086 255 226 128
-0.619684 -0.349122 1.242009 255 187 122
-0.619727 -0.349190 1.242096 224 193 108
-0.619716 -0.349173 1.242074 255 255 204
-0.619758 -0.349237 1.242157 182 147 116
-0.619718 -0.349175 1.242077 238 230 217
-0.619760 -0.349240 1.242161 92 105 108
-0.619723 -0.349184 1.242088 232 207 122
-0.619747 -0.349221 1.242136 219 112 40
-0.619754 -0.349232 1.242150 250 253 254
-0.619741 -0.349211 1.242123 255 144 76
-0.619723 -0.349183 1.242087 220 190 102
-0.619717 -0.349175 1.242077 255 246 230
-0.619739 -0.349209 1.242120 97 58 30
-0.619750 -0.349226 1.242143 235 155 87
-0.619750 -0.349226 1.242143 235 155 87
-0.619712 -0.349166 1.242065 242 173 134
-0.619734 -0.349201 1.242111 125 58 27
-0.619734 -0.349201 1.242111 125 58 27
-0.619739 -0.349208 1.242120 241 179 144
-0.619745 -0.349218 1.242132 255 222 170
-0.619728 -0.349192 1.242099 255 194 122
-0.619724 -0.349186 1.242091 211 190 109
-0.619704 -0.349155 1.242051 226 196 179
-0.619737 -0.349206 1.242118 249 159 107
-0.619706 -0.349158 1.242056 255 216 158
-0.619753 -0.349231 1.242149 75 50 25
-0.619738 -0.349208 1.242119 101 29 12
-0.619724 -0.349186 1.242091 220 199 118
-0.619725 -0.349188 1.242093 255 236 152
-0.619725 -0.349188 1.242093 255 236 152
-0.619744 -0.349217 1.242132 255 185 131
-0.619744 -0.349217 1.242132 255 185 131
-0.619754 -0.349233 1.242152 102 73 53
-0.619734 -0.349201 1.242111 225 138 91
-0.619728 -0.349192 1.242099 242 135 62
-0.619755 -0.349235 1.242154 237 154 103
-0.619756 -0.349236 1.242156 69 58 38
-0.619724 -0.349185 1.242091 211 192 114
-0.619734 -0.349201 1.242111 243 137 84
-0.619759 -0.349241 1.242162 203 206 207
-0.619728 -0.349192 1.242099 244 134 62
-0.619718 -0.349178 1.242081 255 255 187
-0.619755 -0.349234 1.242154 151 92 53
-0.619736 -0.349205 1.242116 235 126 59
-0.619725 -0.349188 1.242094 221 194 109
-0.619724 -0.349186 1.242092 232 207 130
-0.619737 -0.349207 1.242119 255 223 195
