ply
format ascii 1.0
element vertex 1123
property float x
property float y
property float z
property uchar red
property uchar green
property uchar blue
end_header
-27.962744 -15.863426 55.944042 255 172 106
-27.962381 -15.865200 55.943321 232 246 241
-27.962381 -15.865200 55.943321 232 246 241
-27.962629 -15.863939 55.943821 226 192 167
-27.962662 -15.863565 55.943882 176 177 180
-27.962597 -15.863881 55.943760 55 50 20
-27.962572 -15.864321 55.943710 255 223 175
-27.962809 -15.862719 55.944183 144 147 148
-27.962486 -15.864745 55.943542 207 239 222
-27.962763 -15.863444 55.944096 255 204 137
-27.962646 -15.864099 55.943863 46 51 48
-27.962677 -15.863947 55.943932 155 132 110
-27.962486 -15.864698 55.943550 97 112 149
-27.962486 -15.864698 55.943550 97 112 149
-27.962387 -15.864931 55.943359 77 77 77
-27.962477 -15.864582 55.943539 202 213 186
-27.962812 -15.863080 55.944218 255 164 114
-27.962812 -15.863051 55.944218 249 158 122
-27.962624 -15.863668 55.943844 154 164 170
-27.962484 -15.864346 55.943569 88 75 55
-27.962883 -15.862902 55.944366 82 80 80
-27.962584 -15.864267 55.943771 119 105 101
-27.962629 -15.863945 55.943871 89 63 35
-27.962339 -15.865111 55.943291 79 69 80
-27.962454 -15.864908 55.943523 76 79 80
-27.962448 -15.864721 55.943512 140 164 171
-27.962521 -15.864332 55.943657 255 252 231
-27.962622 -15.863749 55.943867 44 47 48
-27.962595 -15.863776 55.943817 149 149 149
-27.962830 -15.862489 55.944286 112 108 108
-27.962351 -15.865156 55.943333 79 74 94
-27.962351 -15.865156 55.943333 79 74 94
-27.962362 -15.865264 55.943356 85 88 85
-27.962362 -15.865264 55.943356 85 88 85
-27.962530 -15.864352 55.943691 71 51 35
-27.962652 -15.863977 55.943939 216 212 166
-27.962551 -15.864336 55.943745 245 250 253
-27.962551 -15.864336 55.943745 245 250 253
-27.962561 -15.864386 55.943764 105 66 47
-27.962706 -15.863293 55.944054 66 65 63
-27.962519 -15.864287 55.943687 60 62 56
-27.962612 -15.863761 55.943874 156 158 157
-27.962835 -15.862803 55.944324 54 50 62
-27.962614 -15.863783 55.943882 41 41 41
-27.962618 -15.864067 55.943890 237 249 238
-27.962566 -15.864072 55.943794 77 86 76
-27.962305 -15.865145 55.943275 71 65 87
-27.962658 -15.863564 55.943977 46 45 47
-27.962713 -15.863122 55.944088 120 98 90
-27.962713 -15.863122 55.944088 120 98 90
-27.962317 -15.864707 55.943298 100 102 101
-27.962238 -15.865205 55.943146 74 76 75
-27.962587 -15.864073 55.943844 250 255 247
-27.962381 -15.864729 55.943432 225 232 229
-27.962559 -15.864264 55.943798 244 160 107
-27.962559 -15.864264 55.943798 244 160 107
-27.962534 -15.864342 55.943748 126 119 111
-27.962534 -15.864342 55.943748 126 119 111
-27.962801 -15.863046 55.944286 70 65 61
-27.962595 -15.864126 55.943882 233 236 227
-27.962393 -15.864648 55.943474 232 246 211
-27.962584 -15.864066 55.943859 134 144 132
-27.962503 -15.864820 55.943703 95 96 97
-27.962376 -15.864713 55.943451 130 133 160
-27.962814 -15.862858 55.944324 127 116 129
-27.962627 -15.863721 55.943958 83 86 87
-27.962519 -15.864318 55.943745 255 224 201
-27.962334 -15.865206 55.943378 72 68 92
-27.962591 -15.864037 55.943893 62 64 53
-27.962580 -15.863976 55.943874 47 46 27
-27.962461 -15.864643 55.943649 68 82 71
-27.962461 -15.864643 55.943649 68 82 71
-27.962650 -15.863444 55.944023 116 121 122
-27.962816 -15.862858 55.944359 94 77 85
-27.962767 -15.863120 55.944271 255 249 221
-27.962597 -15.864153 55.943928 182 188 181
-27.962831 -15.862917 55.944401 176 163 173
-27.962440 -15.864658 55.943619 130 144 133
-27.962553 -15.864388 55.943844 255 204 174
-27.962572 -15.864038 55.943882 54 59 39
-27.962681 -15.863592 55.944099 78 83 84
-27.962381 -15.864471 55.943504 27 29 24
-27.962585 -15.863699 55.943916 43 45 44
-27.962336 -15.865112 55.943424 137 126 122
-27.962587 -15.863991 55.943924 63 57 52
-27.962587 -15.863991 55.943924 63 57 52
-27.962717 -15.863176 55.944183 69 71 70
-27.962545 -15.864372 55.943848 255 205 139
-27.962749 -15.863144 55.944256 255 255 255
-27.962816 -15.862841 55.944401 243 181 130
-27.962315 -15.865221 55.943398 253 234 253
-27.962574 -15.863728 55.943924 122 123 124
-27.962698 -15.863351 55.944168 140 142 141
-27.962631 -15.863020 55.944038 123 124 122
-27.962631 -15.863732 55.944038 86 89 90
-27.962898 -15.863005 55.944576 181 167 163
-27.962456 -15.864690 55.943691 108 116 110
-27.962471 -15.864361 55.943722 83 57 39
-27.962404 -15.864760 55.943588 90 89 103
-27.962795 -15.862921 55.944382 92 81 108
-27.962683 -15.863477 55.944157 104 105 106
-27.962481 -15.864356 55.943752 250 197 171
-27.962481 -15.864356 55.943752 250 197 171
-27.962526 -15.864313 55.943844 65 60 56
-27.962631 -15.863663 55.944057 45 45 45
-27.962626 -15.863482 55.944042 89 94 95
-27.962528 -15.863951 55.943855 49 45 34
-27.962543 -15.863784 55.943882 86 86 86
-27.962299 -15.865201 55.943398 255 229 191
-27.962706 -15.863094 55.944210 69 64 60
-27.962706 -15.863094 55.944210 69 64 60
-27.962862 -15.862935 55.944527 237 179 148
-27.962334 -15.865185 55.943478 246 195 169
-27.962595 -15.863600 55.943993 147 150 151
-27.962482 -15.864255 55.943779 46 34 17
-27.962523 -15.864331 55.943863 202 198 198
-27.962521 -15.863642 55.943855 255 254 253
-27.962740 -15.863235 55.944302 66 69 66
-27.962694 -15.863429 55.944214 81 84 85
-27.962519 -15.863939 55.943863 168 167 147
-27.962658 -15.863478 55.944141 101 104 105
-27.962658 -15.863478 55.944141 101 104 105
-27.962814 -15.862797 55.944458 56 50 46
-27.962675 -15.863400 55.944187 66 66 66
-27.962543 -15.863981 55.943928 175 179 139
-27.962543 -15.863981 55.943928 175 179 139
-27.962608 -15.863760 55.944054 84 84 84
-27.962515 -15.864335 55.943878 72 59 56
-27.962486 -15.864349 55.943817 215 210 202
-27.962282 -15.865150 55.943409 231 231 231
-27.962778 -15.862941 55.944401 255 247 254
-27.962513 -15.864380 55.943871 146 141 137
-27.962383 -15.865108 55.943619 68 50 38
-27.962616 -15.864152 55.944084 202 206 195
-27.962540 -15.864182 55.943939 199 233 197
-27.962568 -15.863873 55.943996 156 154 154
-27.962317 -15.865104 55.943501 106 60 48
-27.962368 -15.864707 55.943607 247 251 228
-27.962368 -15.864707 55.943607 247 251 228
-27.962772 -15.863018 55.944412 55 49 48
-27.962532 -15.864111 55.943935 157 165 152
-27.962326 -15.864682 55.943523 247 251 228
-27.962326 -15.864682 55.943523 247 251 228
-27.962582 -15.863870 55.944035 60 60 60
-27.962475 -15.864325 55.943829 255 217 181
-27.962482 -15.864256 55.943844 248 161 105
-27.962719 -15.863161 55.944317 210 209 207
-27.962542 -15.863743 55.943962 82 84 83
-27.962784 -15.862820 55.944447 99 93 88
-27.962784 -15.862820 55.944447 99 93 88
-27.962635 -15.863397 55.944149 219 221 220
-27.962500 -15.864394 55.943882 51 50 48
-27.962536 -15.863884 55.943958 124 120 120
-27.962536 -15.863884 55.943958 124 120 120
-27.962805 -15.862853 55.944489 59 53 49
-27.962805 -15.862853 55.944489 59 53 49
-27.962233 -15.865199 55.943356 255 183 118
-27.962233 -15.865199 55.943356 255 183 118
-27.962624 -15.863375 55.944141 147 146 144
-27.962648 -15.863467 55.944191 232 246 245
-27.962307 -15.865166 55.943520 255 236 204
-27.962307 -15.865166 55.943520 255 236 204
-27.962782 -15.862938 55.944466 255 221 182
-27.962362 -15.864663 55.943626 228 250 227
-27.962412 -15.864681 55.943733 117 126 116
-27.962412 -15.864662 55.943733 70 78 71
-27.962519 -15.864027 55.943954 123 116 101
-27.962519 -15.864027 55.943954 123 116 101
-27.962561 -15.863691 55.944038 50 44 40
-27.962692 -15.863417 55.944313 190 188 183
-27.962641 -15.863420 55.944210 185 186 184
-27.962416 -15.864687 55.943760 209 215 208
-27.962584 -15.863807 55.944103 105 107 106
-27.962679 -15.863336 55.944290 200 200 200
-27.962793 -15.862816 55.944523 242 182 129
-27.962421 -15.864480 55.943787 37 37 31
-27.962358 -15.864688 55.943661 248 255 245
-27.962358 -15.864688 55.943661 248 255 245
-27.962223 -15.865415 55.943394 105 78 68
-27.962440 -15.864343 55.943829 255 227 179
-27.962475 -15.864305 55.943901 255 186 134
-27.962511 -15.864034 55.943974 105 102 82
-27.962587 -15.863533 55.944126 93 92 90
-27.962816 -15.862904 55.944584 230 230 225
-27.962639 -15.863516 55.944237 98 100 99
-27.962652 -15.863389 55.944267 93 90 88
-27.962671 -15.863307 55.944305 94 94 94
-27.962482 -15.864350 55.943928 255 253 228
-27.962585 -15.863555 55.944138 175 174 172
-27.962486 -15.863810 55.943943 70 70 70
-27.962349 -15.864705 55.943668 89 94 91
-27.962692 -15.863470 55.944355 87 89 84
-27.962393 -15.864694 55.943756 118 120 114
-27.962660 -15.863215 55.944290 84 83 81
-27.962660 -15.863215 55.944290 84 83 81
-27.962662 -15.863454 55.944298 89 91 86
-27.962475 -15.863833 55.943924 60 62 61
-27.962797 -15.862777 55.944569 53 42 33
-27.962475 -15.864324 55.943928 116 69 56
-27.962767 -15.862912 55.944511 63 46 44
-27.962767 -15.862912 55.944511 63 46 44
-27.962435 -15.864245 55.943851 66 60 84
-27.962399 -15.864470 55.943779 160 163 143
-27.962465 -15.864167 55.943916 183 142 88
-27.962513 -15.864264 55.944023 248 243 213
-27.962412 -15.864701 55.943829 251 255 245
-27.962410 -15.864596 55.943825 229 252 232
-27.962450 -15.864329 55.943909 229 239 245
-27.962788 -15.862891 55.944588 255 215 178
-27.962259 -15.865138 55.943531 240 221 218
-27.962488 -15.864400 55.943989 131 91 83
-27.962524 -15.863811 55.944065 78 78 78
-27.962753 -15.862928 55.944523 169 144 129
-27.962471 -15.864260 55.943958 45 37 40
-27.962410 -15.864385 55.943840 62 35 25
-27.962383 -15.864545 55.943787 216 238 208
-27.962486 -15.864177 55.944000 255 242 214
-27.962336 -15.864680 55.943703 83 87 80
-27.962383 -15.864528 55.943798 148 137 94
-27.962236 -15.865148 55.943504 81 56 41
-27.962675 -15.862945 55.944382 90 84 83
-27.962469 -15.864021 55.943974 149 154 121
-27.962294 -15.865060 55.943626 54 51 40
-27.962444 -15.864298 55.943928 65 55 72
-27.962263 -15.865134 55.943569 255 230 175
-27.962263 -15.865134 55.943569 255 230 175
-27.962467 -15.864324 55.943974 76 64 94
-27.962273 -15.865086 55.943588 49 43 39
-27.962410 -15.864516 55.943867 159 97 55
-27.962494 -15.864216 55.944042 173 133 87
-27.962473 -15.864244 55.944004 221 235 194
-27.962452 -15.864284 55.943966 255 191 138
-27.962521 -15.864442 55.944103 126 115 128
-27.962751 -15.862841 55.944565 63 53 46
-27.962425 -15.864483 55.943920 87 65 34
-27.962688 -15.862950 55.944443 88 75 71
-27.962481 -15.864047 55.944031 167 171 131
-27.962757 -15.862782 55.944588 241 176 124
-27.962566 -15.864017 55.944218 44 42 37
-27.962469 -15.864339 55.944019 255 191 145
-27.962387 -15.864487 55.943855 229 197 157
-27.962627 -15.863236 55.944340 249 251 250
-27.962627 -15.863236 55.944340 249 251 250
-27.962658 -15.863284 55.944405 85 85 85
-27.962276 -15.864655 55.943642 88 93 90
-27.962370 -15.864664 55.943832 185 193 180
-27.962328 -15.864641 55.943752 183 191 178
-27.962723 -15.862730 55.944542 71 50 31
-27.962408 -15.864368 55.943916 97 76 97
-27.962574 -15.863422 55.944252 139 140 141
-27.962368 -15.864574 55.943848 210 133 81
-27.962368 -15.864574 55.943848 210 133 81
-27.962624 -15.863227 55.944355 234 223 220
-27.962458 -15.864095 55.944027 172 94 46
-27.962458 -15.864095 55.944027 172 94 46
-27.962763 -15.862887 55.944645 234 226 213
-27.962259 -15.865117 55.943638 251 249 249
-27.962749 -15.862724 55.944618 52 45 37
-27.962439 -15.864170 55.944004 253 218 157
-27.962202 -15.865109 55.943531 73 47 29
-27.962313 -15.864677 55.943764 112 116 109
-27.962402 -15.864364 55.943935 255 177 126
-27.962399 -15.864361 55.943932 255 182 123
-27.962708 -15.862741 55.944550 134 123 119
-27.962238 -15.864972 55.943611 91 60 70
-27.962267 -15.864958 55.943680 53 42 63
-27.962616 -15.863041 55.944389 118 117 119
-27.962236 -15.865132 55.943634 54 51 40
-27.962410 -15.863882 55.943985 50 51 49
-27.962605 -15.863129 55.944374 120 124 123
-27.962427 -15.864602 55.944027 221 237 195
-27.962233 -15.865010 55.943634 120 69 68
-27.962217 -15.865023 55.943604 255 190 142
-27.962393 -15.864665 55.943962 175 147 95
-27.962399 -15.864691 55.943974 232 238 225
-27.962463 -15.863868 55.944103 73 76 73
-27.962606 -15.863214 55.944405 75 74 76
-27.962280 -15.864997 55.943748 121 112 143
-27.962540 -15.863523 55.944271 99 93 89
-27.962709 -15.862752 55.944611 62 58 47
-27.962584 -15.863594 55.944359 255 253 252
-27.962528 -15.863663 55.944260 97 99 98
-27.962717 -15.862799 55.944633 54 48 44
-27.962706 -15.862925 55.944614 154 148 144
-27.962399 -15.864310 55.944004 255 204 150
-27.962309 -15.864614 55.943829 255 246 204
-27.962420 -15.864088 55.944046 180 171 124
-27.962420 -15.864088 55.944046 180 171 124
-27.962532 -15.863582 55.944275 255 253 252
-27.962370 -15.864274 55.943951 235 163 116
-27.962404 -15.864052 55.944027 72 63 48
-27.962420 -15.863791 55.944061 97 83 80
-27.962307 -15.864633 55.943836 255 224 179
-27.962559 -15.863616 55.944347 244 238 234
-27.962517 -15.863386 55.944263 106 106 106
-27.962313 -15.864629 55.943863 208 145 105
-27.962318 -15.864281 55.943882 61 48 45
-27.962250 -15.864618 55.943741 177 156 123
-27.962753 -15.862656 55.944756 123 91 74
-27.962038 -15.865345 55.943329 145 146 147
-27.962404 -15.863882 55.944054 133 138 135
-27.962290 -15.865000 55.943832 232 156 102
-27.962702 -15.862838 55.944660 255 250 246
-27.962702 -15.862838 55.944660 255 250 246
-27.962440 -15.863843 55.944138 255 254 254
-27.962347 -15.864307 55.943947 76 65 62
-27.962683 -15.862764 55.944618 232 192 162
-27.962406 -15.864078 55.944069 80 76 65
-27.962559 -15.863336 55.944378 62 62 62
-27.962393 -15.864260 55.944050 54 62 50
-27.962393 -15.864260 55.944050 54 62 50
-27.962393 -15.864260 55.944050 54 62 50
-27.962353 -15.864281 55.943981 255 255 253
-27.962399 -15.864108 55.944073 63 62 43
-27.962685 -15.862849 55.944649 63 41 24
-27.962664 -15.862857 55.944607 255 187 138
-27.962259 -15.864682 55.943806 76 79 76
-27.962339 -15.864571 55.943974 226 233 193
-27.962339 -15.864571 55.943974 226 233 193
-27.962421 -15.863469 55.944130 77 79 78
-27.962276 -15.864662 55.943848 113 110 90
-27.962526 -15.863303 55.944347 130 132 131
-27.962444 -15.864194 55.944191 67 68 37
-27.962648 -15.862797 55.944599 255 218 190
-27.962372 -15.864241 55.944050 242 245 242
-27.962505 -15.863581 55.944317 95 97 96
-27.962681 -15.862847 55.944668 75 67 62
-27.962269 -15.864182 55.943848 244 247 244
-27.962206 -15.865071 55.943726 232 223 250
-27.962273 -15.864679 55.943863 101 105 104
-27.962317 -15.864597 55.943954 179 189 148
-27.962471 -15.863956 55.944267 95 99 98
-27.962324 -15.864391 55.943977 44 38 37
-27.962126 -15.865071 55.943584 241 189 147
-27.962126 -15.865071 55.943584 241 189 147
-27.962448 -15.863786 55.944229 69 69 69
-27.962477 -15.863536 55.944286 72 72 72
-27.962265 -15.864655 55.943874 135 107 79
-27.962719 -15.862820 55.944782 255 188 130
-27.962719 -15.862820 55.944782 255 188 130
-27.962452 -15.863884 55.944252 103 90 87
-27.962645 -15.862703 55.944633 107 78 74
-27.962681 -15.862744 55.944710 234 175 143
-27.962681 -15.862744 55.944710 234 175 143
-27.962458 -15.863814 55.944263 72 71 69
-27.962172 -15.865058 55.943703 69 70 109
-27.962458 -15.863650 55.944283 86 87 85
-27.962416 -15.863513 55.944202 233 233 233
-27.962410 -15.864232 55.944195 85 77 59
-27.962694 -15.862786 55.944763 255 185 131
-27.962246 -15.864644 55.943871 106 102 94
-27.962263 -15.865105 55.943909 241 175 141
-27.962364 -15.864172 55.944118 79 79 74
-27.962357 -15.864219 55.944115 86 72 69
-27.962442 -15.863523 55.944294 228 232 231
-27.962206 -15.865002 55.943829 255 235 165
-27.962496 -15.863347 55.944408 82 86 85
-27.962290 -15.863866 55.943996 218 212 208
-27.962692 -15.862764 55.944801 66 64 105
-27.962692 -15.862764 55.944801 66 64 105
-27.962643 -15.864033 55.944702 90 83 82
-27.962130 -15.864823 55.943684 39 31 27
-27.962267 -15.864656 55.943958 107 107 101
-27.962317 -15.864491 55.944054 98 106 99
-27.962347 -15.864525 55.944130 223 239 222
-27.962309 -15.863930 55.944057 91 94 95
-27.962229 -15.864636 55.943901 103 105 100
-27.962244 -15.864435 55.943932 121 124 121
-27.962242 -15.864628 55.943935 90 91 82
-27.962164 -15.865069 55.943779 255 190 119
-27.962412 -15.863459 55.944275 49 49 49
-27.962461 -15.863937 55.944386 249 249 249
-27.962177 -15.865104 55.943821 81 71 72
-27.962267 -15.864301 55.944004 251 243 239
-27.962288 -15.864392 55.944050 104 105 103
-27.962276 -15.864616 55.944038 120 116 108
-27.962265 -15.864576 55.944019 96 96 85
-27.962290 -15.863997 55.944069 69 71 70
-27.962290 -15.864306 55.944065 157 151 150
-27.962290 -15.864306 55.944065 157 151 150
-27.962236 -15.864530 55.943958 99 105 98
-27.962637 -15.862790 55.944767 226 223 243
-27.962448 -15.863663 55.944389 91 93 92
-27.962242 -15.864368 55.943981 69 71 70
-27.962008 -15.865648 55.943520 224 215 205
-27.962309 -15.864331 55.944126 156 140 134
-27.962645 -15.862767 55.944798 229 218 229
-27.962635 -15.862761 55.944782 241 220 218
-27.962584 -15.862788 55.944687 84 70 76
-27.962387 -15.864027 55.944298 100 101 102
-27.962175 -15.864473 55.943890 97 103 102
-27.962278 -15.864390 55.944103 255 254 252
-27.962278 -15.864390 55.944103 255 254 252
-27.962009 -15.865578 55.943569 107 107 107
-27.962234 -15.864415 55.944019 92 94 93
-27.962641 -15.862816 55.944832 86 71 104
-27.962467 -15.863993 55.944504 203 200 198
-27.962206 -15.864760 55.943981 66 70 69
-27.962553 -15.863008 55.944683 199 201 200
-27.962553 -15.863008 55.944683 199 201 200
-27.962105 -15.864890 55.943787 242 243 241
-27.962353 -15.863380 55.944294 144 146 145
-27.962725 -15.862759 55.945034 255 224 155
-27.962275 -15.864429 55.944138 155 157 156
-27.962324 -15.864288 55.944237 47 47 42
-27.962049 -15.864937 55.943695 140 144 138
-27.962276 -15.864347 55.944157 253 253 248
-27.962578 -15.863056 55.944767 144 145 146
-27.962351 -15.863961 55.944309 94 93 91
-27.962399 -15.864019 55.944412 190 189 187
-27.962255 -15.864430 55.944126 78 78 78
-27.962250 -15.864440 55.944115 196 198 197
-27.962212 -15.864511 55.944042 100 103 104
-27.962473 -15.863656 55.944569 140 142 141
-27.962355 -15.864200 55.944347 66 68 67
-27.962248 -15.864231 55.944134 121 123 122
-27.962439 -15.863441 55.944511 134 134 134
-27.962626 -15.862805 55.944893 255 183 127
-27.962429 -15.863644 55.944500 79 80 81
-27.962278 -15.863893 55.944218 55 53 53
-27.962358 -15.864056 55.944378 133 120 117
-27.962084 -15.865059 55.943832 161 163 162
-27.962275 -15.864049 55.944214 228 226 221
-27.962330 -15.864020 55.944328 255 253 251
-27.962345 -15.864083 55.944363 149 147 142
-27.962296 -15.864053 55.944271 130 128 123
-27.962296 -15.864053 55.944271 130 128 123
-27.962330 -15.864175 55.944344 255 253 253
-27.962330 -15.864061 55.944351 255 255 254
-27.962255 -15.864413 55.944202 51 48 46
-27.962255 -15.864413 55.944202 51 48 46
-27.962181 -15.864467 55.944061 237 237 237
-27.962347 -15.864035 55.944405 97 78 75
-27.962418 -15.863560 55.944546 91 96 97
-27.962708 -15.862738 55.945126 234 253 251
-27.962152 -15.864538 55.944019 110 115 116
-27.962286 -15.863893 55.944290 60 58 58
-27.962275 -15.864037 55.944275 217 205 205
-27.962097 -15.864892 55.943920 90 88 88
-27.962332 -15.863688 55.944397 165 167 166
-27.962219 -15.864532 55.944183 255 255 254
-27.962202 -15.864223 55.944153 76 80 79
-27.962072 -15.865089 55.943905 134 135 136
-27.962246 -15.864167 55.944252 98 99 97
-27.962357 -15.863410 55.944477 147 148 149
-27.962330 -15.864152 55.944420 74 76 75
-27.962139 -15.864576 55.944050 90 93 94
-27.962379 -15.863419 55.944538 93 94 95
-27.962379 -15.863419 55.944538 93 94 95
-27.962317 -15.864377 55.944412 44 56 57
-27.962317 -15.864377 55.944412 44 56 57
-27.962770 -15.862838 55.945324 110 104 103
-27.962227 -15.864232 55.944241 57 61 60
-27.962296 -15.863877 55.944382 176 178 177
-27.962172 -15.864358 55.944138 65 70 67
-27.962555 -15.862720 55.944908 101 101 101
-27.962152 -15.864414 55.944126 74 76 71
-27.962215 -15.864215 55.944252 67 71 70
-27.962225 -15.864477 55.944267 48 40 36
-27.962067 -15.864944 55.943954 239 240 238
-27.962067 -15.864944 55.943954 239 240 238
-27.962233 -15.864334 55.944298 62 66 65
-27.962530 -15.862810 55.944916 142 144 143
-27.961952 -15.865342 55.943756 90 95 96
-27.962307 -15.863597 55.944473 88 90 89
-27.962198 -15.864484 55.944260 95 79 73
-27.962223 -15.864133 55.944324 216 218 217
-27.962025 -15.865053 55.943939 61 63 62
-27.962112 -15.864542 55.944118 49 45 45
-27.962086 -15.864944 55.944077 125 120 116
-27.962223 -15.864045 55.944351 48 47 45
-27.961990 -15.865156 55.943890 55 56 57
-27.962284 -15.864152 55.944477 202 195 194
-27.962212 -15.864178 55.944336 241 245 244
-27.962130 -15.864445 55.944172 134 132 132
-27.962414 -15.863395 55.944740 78 81 82
-27.961946 -15.865410 55.943810 234 253 253
-27.961946 -15.865410 55.943810 234 253 253
-27.962236 -15.864001 55.944401 50 50 50
-27.962311 -15.863423 55.944553 49 52 53
-27.961981 -15.865281 55.943897 105 102 100
-27.962233 -15.863738 55.944405 84 88 87
-27.962233 -15.863738 55.944405 84 88 87
-27.962233 -15.863815 55.944405 143 145 144
-27.962164 -15.864079 55.944279 84 71 68
-27.962223 -15.864268 55.944405 74 78 77
-27.962305 -15.863538 55.944572 81 85 84
-27.962185 -15.864208 55.944344 242 246 245
-27.962292 -15.864205 55.944557 223 223 223
-27.962101 -15.864858 55.944183 100 103 100
-27.962358 -15.863620 55.944714 233 243 245
-27.962044 -15.864964 55.944084 47 50 47
-27.962065 -15.864358 55.944138 60 62 61
-27.962021 -15.864995 55.944057 130 141 139
-27.962111 -15.864482 55.944244 73 74 72
-27.962111 -15.864482 55.944244 73 74 72
-27.962328 -15.863483 55.944675 237 238 241
-27.962095 -15.864488 55.944214 98 80 74
-27.962332 -15.863512 55.944695 64 66 65
-27.962002 -15.864983 55.944038 200 205 202
-27.962187 -15.864001 55.944412 82 83 84
-27.962307 -15.863405 55.944656 67 68 69
-27.962351 -15.863624 55.944740 246 255 255
-27.962345 -15.863496 55.944744 86 87 88
-27.962315 -15.863519 55.944687 184 185 186
-27.962236 -15.864202 55.944534 156 157 158
-27.962017 -15.864786 55.944103 44 49 46
-27.961922 -15.864685 55.943913 249 255 254
-27.962294 -15.863482 55.944660 248 253 254
-27.961945 -15.865203 55.943970 102 105 106
-27.962059 -15.864619 55.944206 118 119 117
-27.962004 -15.865031 55.944096 248 255 255
-27.962196 -15.864085 55.944485 76 80 79
-27.962196 -15.864085 55.944485 76 80 79
-27.962259 -15.863427 55.944614 31 35 34
-27.962172 -15.863981 55.944443 79 78 80
-27.962049 -15.864692 55.944202 37 38 36
-27.962049 -15.864692 55.944202 37 38 36
-27.962309 -15.863541 55.944729 59 60 61
-27.962143 -15.864172 55.944401 138 139 140
-27.962015 -15.864769 55.944149 131 139 139
-27.962265 -15.863486 55.944653 217 222 223
-27.962185 -15.864244 55.944492 167 169 168
-27.962288 -15.863572 55.944729 79 80 81
-27.962208 -15.864137 55.944572 140 144 143
-27.961943 -15.865045 55.944046 241 245 244
-27.962166 -15.864163 55.944492 68 72 71
-27.962036 -15.864789 55.944233 232 246 247
-27.962225 -15.863759 55.944611 96 99 100
-27.962444 -15.862806 55.945057 83 87 86
-27.962048 -15.864608 55.944267 41 42 40
-27.961941 -15.865093 55.944050 95 98 95
-27.962278 -15.863379 55.944733 99 100 101
-27.962151 -15.864100 55.944481 72 76 75
-27.962040 -15.864276 55.944271 66 68 67
-27.962147 -15.864409 55.944485 242 255 255
-27.961990 -15.864902 55.944180 92 94 93
-27.962276 -15.863605 55.944786 136 138 137
-27.962276 -15.863605 55.944786 136 138 137
-27.961933 -15.864981 55.944111 49 49 49
-27.961998 -15.864813 55.944241 94 95 93
-27.962160 -15.864134 55.944565 135 139 138
-27.962021 -15.864514 55.944283 41 38 36
-27.962152 -15.863510 55.944572 67 69 68
-27.962242 -15.863341 55.944756 145 150 151
-27.962185 -15.863776 55.944672 163 166 167
-27.961943 -15.864704 55.944195 111 113 112
-27.962185 -15.863789 55.944687 75 78 79
-27.962120 -15.864422 55.944588 56 61 62
-27.961994 -15.864589 55.944336 127 126 124
-27.962238 -15.863358 55.944843 117 123 122
-27.962154 -15.863792 55.944679 135 138 139
-27.962296 -15.862837 55.944988 83 84 85
-27.962135 -15.863865 55.944672 164 165 166
-27.962135 -15.863865 55.944672 164 165 166
-27.962105 -15.863927 55.944626 76 76 76
-27.962114 -15.863926 55.944649 172 172 172
-27.962114 -15.863926 55.944649 172 172 172
-27.962090 -15.864378 55.944611 69 70 71
-27.962133 -15.863880 55.944710 140 138 144
-27.962084 -15.863987 55.944614 101 106 107
-27.961969 -15.864627 55.944393 128 130 129
-27.962019 -15.864332 55.944489 107 107 107
-27.962154 -15.863800 55.944756 115 115 115
-27.962168 -15.863732 55.944801 43 43 43
-27.962145 -15.863900 55.944763 46 37 42
-27.962048 -15.864175 55.944584 93 81 81
-27.962162 -15.863955 55.944817 50 41 44
-27.962122 -15.863976 55.944740 59 56 46
-27.961960 -15.864542 55.944431 79 83 82
-27.962021 -15.864468 55.944553 88 91 92
-27.962057 -15.863935 55.944637 202 169 142
-27.962057 -15.863935 55.944637 202 169 142
-27.962042 -15.863994 55.944614 42 45 42
-27.961906 -15.864532 55.944344 152 156 155
-27.962082 -15.864169 55.944698 40 40 35
-27.961977 -15.864367 55.944489 134 138 137
-27.962133 -15.863761 55.944805 35 33 33
-27.961958 -15.864242 55.944450 60 63 60
-27.961958 -15.864242 55.944450 60 63 60
-27.962065 -15.864224 55.944672 215 178 153
-27.962059 -15.863935 55.944668 69 46 49
-27.961983 -15.864364 55.944515 75 77 76
-27.962053 -15.864095 55.944664 34 25 16
-27.962154 -15.864077 55.944870 46 45 36
-27.962124 -15.863946 55.944805 60 54 83
-27.962086 -15.864148 55.944744 205 167 137
-27.962097 -15.864067 55.944767 65 34 14
-27.961943 -15.864540 55.944458 126 130 129
-27.962120 -15.863981 55.944813 127 89 76
-27.962093 -15.864037 55.944756 42 36 26
-27.961805 -15.864919 55.944191 120 122 121
-27.961863 -15.865226 55.944305 86 91 92
-27.962118 -15.863564 55.944817 62 62 62
-27.962091 -15.864238 55.944763 255 243 211
-27.962101 -15.864263 55.944798 255 195 147
-27.962088 -15.864004 55.944767 255 190 132
-27.962044 -15.864164 55.944683 50 45 40
-27.962044 -15.864164 55.944683 50 45 40
-27.962114 -15.864163 55.944832 99 51 20
-27.962082 -15.863968 55.944767 255 243 247
-27.961910 -15.864554 55.944424 77 79 78
-27.962069 -15.864095 55.944748 255 197 152
-27.961969 -15.864312 55.944557 95 95 95
-27.962103 -15.864052 55.944824 249 202 168
-27.961880 -15.864416 55.944382 95 98 95
-27.962086 -15.863835 55.944794 169 97 38
-27.962042 -15.864178 55.944706 228 223 219
-27.962055 -15.864163 55.944733 253 199 163
-27.962072 -15.864277 55.944775 255 219 196
-27.962061 -15.864108 55.944748 255 225 206
-27.962059 -15.864088 55.944748 255 204 165
-27.961958 -15.864286 55.944546 59 58 60
-27.962116 -15.863509 55.944866 77 79 78
-27.961992 -15.864249 55.944626 74 61 81
-27.961983 -15.864382 55.944611 125 128 129
-27.962053 -15.864192 55.944752 41 35 31
-27.962053 -15.864192 55.944752 41 35 31
-27.962282 -15.862918 55.945213 118 113 108
-27.962093 -15.863829 55.944839 250 188 137
-27.962057 -15.864071 55.944771 54 51 49
-27.962057 -15.864071 55.944771 54 51 49
-27.962078 -15.864264 55.944817 255 188 139
-27.962038 -15.864212 55.944740 48 45 43
-27.962133 -15.863684 55.944942 41 35 31
-27.962097 -15.863834 55.944870 224 173 133
-27.962309 -15.862934 55.945293 140 139 137
-27.961998 -15.864337 55.944668 61 64 61
-27.962046 -15.863819 55.944775 237 153 100
-27.962105 -15.863791 55.944901 247 255 255
-27.962086 -15.864047 55.944862 255 194 128
-27.962086 -15.864047 55.944862 255 194 128
-27.961903 -15.864600 55.944504 94 96 95
-27.962088 -15.863835 55.944874 255 241 194
-27.962053 -15.864260 55.944805 255 223 177
-27.962065 -15.863989 55.944836 247 243 255
-27.962065 -15.863989 55.944836 247 243 255
-27.962069 -15.863898 55.944839 255 209 145
-27.962069 -15.863898 55.944839 255 209 145
-27.962059 -15.864088 55.944824 255 253 248
-27.962029 -15.864147 55.944767 255 253 244
-27.962029 -15.864147 55.944767 255 253 244
-27.962040 -15.864118 55.944794 255 252 233
-27.962023 -15.864183 55.944771 255 238 196
-27.962023 -15.864183 55.944771 255 238 196
-27.962151 -15.863306 55.945030 47 48 49
-27.962002 -15.864284 55.944733 255 243 255
-27.962002 -15.864284 55.944733 255 243 255
-27.962009 -15.864260 55.944748 255 237 186
-27.962095 -15.864025 55.944920 114 59 46
-27.961973 -15.864327 55.944687 252 255 255
-27.962057 -15.864071 55.944870 216 187 155
-27.962059 -15.864335 55.944881 72 64 89
-27.961884 -15.864587 55.944534 140 144 143
-27.962008 -15.864143 55.944782 42 37 32
-27.962008 -15.864143 55.944782 42 37 32
-27.962051 -15.863990 55.944878 66 54 95
-27.962086 -15.863982 55.944958 242 170 149
-27.962000 -15.864223 55.944790 44 38 27
-27.961824 -15.864786 55.944443 141 145 144
-27.962065 -15.864076 55.944935 255 197 132
-27.962046 -15.863974 55.944897 70 33 47
-27.962063 -15.864029 55.944935 255 183 127
-27.961929 -15.864383 55.944668 83 85 84
-27.962051 -15.864128 55.944912 255 217 147
-27.962038 -15.864092 55.944889 180 154 132
-27.961966 -15.864236 55.944744 255 190 136
-27.962143 -15.863388 55.945103 109 111 110
-27.961620 -15.865202 55.944061 90 95 98
-27.961977 -15.864133 55.944778 127 99 83
-27.961977 -15.864133 55.944778 127 99 83
-27.961966 -15.864092 55.944752 255 195 121
-27.962038 -15.863978 55.944901 237 196 211
-27.962053 -15.863945 55.944942 255 174 105
-27.962053 -15.864238 55.944946 74 30 8
-27.962013 -15.864266 55.944866 255 187 131
-27.962055 -15.863796 55.944950 34 29 24
-27.962017 -15.863707 55.944874 94 88 87
-27.962069 -15.863647 55.944977 115 115 115
-27.962017 -15.864023 55.944874 255 185 111
-27.961908 -15.864486 55.944664 132 135 136
-27.961966 -15.864255 55.944794 255 189 113
-27.961966 -15.864255 55.944794 255 189 113
-27.961855 -15.864741 55.944576 134 136 135
-27.961958 -15.864118 55.944782 74 50 23
-27.961966 -15.864427 55.944801 86 88 87
-27.961893 -15.864495 55.944664 75 77 76
-27.961964 -15.863914 55.944805 255 180 117
-27.961931 -15.864423 55.944744 137 139 138
-27.961962 -15.864222 55.944805 94 36 5
-27.962030 -15.863977 55.944946 74 57 79
-27.961952 -15.864233 55.944786 255 196 140
-27.961882 -15.864377 55.944649 71 72 73
-27.961859 -15.864444 55.944607 89 91 90
-27.961859 -15.864444 55.944607 89 91 90
-27.961739 -15.865246 55.944370 127 114 110
-27.962046 -15.863974 55.944984 84 40 36
-27.961941 -15.864189 55.944778 54 36 24
-27.961723 -15.865269 55.944351 84 86 85
-27.961981 -15.864235 55.944866 55 19 0
-27.961924 -15.864021 55.944759 76 53 46
-27.961943 -15.864250 55.944805 255 177 126
-27.961939 -15.864070 55.944805 54 23 8
-27.962017 -15.863945 55.944965 66 30 31
-27.961857 -15.864445 55.944649 85 85 85
-27.961931 -15.864090 55.944798 52 34 22
-27.962038 -15.863857 55.945015 143 136 135
-27.961935 -15.864262 55.944813 59 40 43
-27.962057 -15.863629 55.945057 161 163 162
-27.962015 -15.863747 55.944977 49 49 49
-27.961926 -15.864283 55.944801 109 106 108
-27.961798 -15.864744 55.944546 134 137 138
-27.961832 -15.864501 55.944618 129 130 131
-27.961834 -15.864399 55.944626 85 87 86
-27.962065 -15.863467 55.945103 132 135 136
-27.962029 -15.863644 55.945045 76 78 77
-27.961908 -15.864198 55.944801 168 155 151
-27.962004 -15.863647 55.945019 147 148 149
-27.962004 -15.863647 55.945019 147 148 149
-27.962088 -15.863281 55.945198 108 109 110
-27.961813 -15.864432 55.944653 136 137 138
-27.962008 -15.863658 55.945057 76 77 78
-27.961935 -15.863973 55.944916 149 152 149
-27.961863 -15.863974 55.944790 76 78 77
-27.961863 -15.863974 55.944790 76 78 77
-27.961887 -15.864395 55.944851 82 84 83
-27.961872 -15.864221 55.944817 86 86 86
-27.961967 -15.864068 55.945034 58 59 60
-27.961906 -15.864232 55.944920 81 83 82
-27.961906 -15.864232 55.944920 81 83 82
-27.961893 -15.863995 55.944904 81 82 83
-27.961910 -15.863785 55.944946 72 73 74
-27.962023 -15.863461 55.945175 119 122 123
-27.962023 -15.863461 55.945175 119 122 123
-27.961910 -15.864031 55.944954 145 146 147
-27.962025 -15.863589 55.945190 135 138 139
-27.961929 -15.864108 55.945019 81 84 85
-27.961882 -15.864101 55.944931 149 151 150
-27.961864 -15.864036 55.944901 118 121 122
-27.961771 -15.864478 55.944721 134 136 135
-27.962008 -15.863358 55.945187 83 91 93
-27.961964 -15.863572 55.945103 72 75 76
-27.961946 -15.863976 55.945076 72 74 73
-27.961956 -15.863482 55.945095 136 139 140
-27.961779 -15.864670 55.944748 146 147 148
-27.961876 -15.864123 55.944946 196 198 197
-27.961926 -15.864130 55.945049 55 57 56
-27.961988 -15.863682 55.945194 69 70 71
-27.961943 -15.863667 55.945107 141 142 143
-27.962025 -15.863374 55.945274 67 77 79
-27.961973 -15.863667 55.945183 117 120 121
-27.961843 -15.864057 55.944931 33 34 32
-27.961742 -15.864668 55.944778 139 140 141
-27.962002 -15.863350 55.945297 110 115 118
-27.961973 -15.863417 55.945244 75 80 81
-27.961927 -15.864018 55.945156 128 131 132
-27.961956 -15.863599 55.945217 145 148 149
-27.961859 -15.863940 55.945019 54 57 58
-27.961889 -15.863850 55.945084 152 153 154
-27.961796 -15.864409 55.944901 139 140 141
-27.962004 -15.863170 55.945320 67 70 71
-27.961971 -15.863641 55.945263 123 126 127
-27.961725 -15.864654 55.944771 76 80 79
-27.961906 -15.863600 55.945152 75 78 79
-27.961937 -15.863924 55.945217 77 79 78
-27.961983 -15.863581 55.945312 116 120 119
-27.961735 -15.864676 55.944817 128 129 130
-27.961903 -15.863709 55.945160 73 74 75
-27.961874 -15.863623 55.945107 68 69 70
-27.961739 -15.864619 55.944836 83 86 87
-27.961977 -15.863702 55.945316 89 90 91
-27.961966 -15.863696 55.945293 89 90 91
-27.961855 -15.863892 55.945084 141 145 144
-27.961895 -15.863916 55.945190 74 78 77
-27.961679 -15.864487 55.944763 81 83 82
-27.961952 -15.863433 55.945309 85 88 89
-27.961803 -15.864206 55.945015 78 80 79
-27.961803 -15.864206 55.945015 78 80 79
-27.961718 -15.864351 55.944843 69 70 71
-27.961903 -15.863828 55.945244 76 77 78
-27.961842 -15.863970 55.945122 54 57 58
-27.961893 -15.863811 55.945229 151 155 154
-27.961926 -15.863346 55.945305 66 77 80
-27.961832 -15.863979 55.945129 153 158 159
-27.961740 -15.864409 55.944958 138 139 140
-27.961843 -15.863807 55.945168 54 57 58
-27.961721 -15.864531 55.944927 79 81 80
-27.961958 -15.863339 55.945393 143 147 146
-27.961731 -15.864392 55.944954 62 63 64
-27.961725 -15.864547 55.944946 123 125 124
-27.961752 -15.864386 55.945007 64 66 65
-27.961752 -15.864386 55.945007 64 66 65
-27.961948 -15.863336 55.945404 65 68 69
-27.961773 -15.864092 55.945049 89 92 93
-27.961815 -15.863870 55.945137 56 61 62
-27.961685 -15.864493 55.944897 146 150 149
-27.961752 -15.864093 55.945042 153 158 159
-27.961821 -15.863421 55.945213 100 94 83
-27.961729 -15.864311 55.945030 163 166 167
-27.961695 -15.864764 55.944969 133 136 137
-27.961796 -15.864105 55.945171 96 99 102
-27.961916 -15.863476 55.945419 80 70 57
-27.961666 -15.864548 55.944923 142 144 143
-27.961746 -15.863940 55.945087 67 72 75
-27.961714 -15.864276 55.945023 86 89 90
-27.961794 -15.863888 55.945194 68 73 74
-27.961821 -15.863772 55.945248 144 147 148
-27.961918 -15.863438 55.945442 244 239 241
-27.961796 -15.863876 55.945202 155 160 161
-27.961796 -15.863876 55.945202 155 160 161
-27.961948 -15.863592 55.945507 181 158 136
-27.961809 -15.863946 55.945225 66 71 74
-27.961634 -15.864545 55.944881 78 81 82
-27.961811 -15.863643 55.945232 73 76 77
-27.961824 -15.863553 55.945286 62 58 76
-27.961683 -15.864407 55.945030 133 134 135
-27.961609 -15.864555 55.944881 82 85 86
-27.961803 -15.864109 55.945278 73 78 79
-27.961868 -15.863474 55.945408 215 150 100
-27.961945 -15.863491 55.945564 202 181 162
-27.961828 -15.863595 55.945335 192 160 136
-27.961895 -15.863585 55.945473 219 198 196
-27.961863 -15.863356 55.945408 30 27 25
-27.961712 -15.864285 55.945107 67 69 68
-27.961843 -15.863760 55.945377 54 57 58
-27.961687 -15.864409 55.945065 70 71 74
-27.961866 -15.863594 55.945419 120 118 140
-27.961767 -15.864035 55.945221 252 255 255
-27.961798 -15.863947 55.945301 50 53 54
-27.961769 -15.863672 55.945251 72 77 78
-27.961937 -15.863666 55.945591 255 192 144
-27.961857 -15.863569 55.945438 203 166 157
-27.961796 -15.863650 55.945324 73 75 74
-27.961788 -15.864047 55.945312 245 255 255
-27.961885 -15.863608 55.945511 65 56 87
-27.961910 -15.863276 55.945560 53 51 51
-27.961872 -15.863623 55.945492 103 73 72
-27.961697 -15.864029 55.945145 248 253 254
-27.961502 -15.864801 55.944767 80 82 81
-27.961718 -15.864175 55.945202 74 75 76
-27.961718 -15.864175 55.945202 74 75 76
-27.961700 -15.864383 55.945171 128 132 131
-27.961752 -15.864029 55.945282 245 255 255
-27.961699 -15.864223 55.945183 82 84 83
-27.961842 -15.863609 55.945473 255 246 239
-27.961683 -15.864230 55.945168 150 152 151
-27.961641 -15.864377 55.945080 146 150 149
-27.961641 -15.864377 55.945080 146 150 149
-27.961857 -15.863590 55.945515 252 249 255
-27.961872 -15.863167 55.945549 131 133 132
-27.961658 -15.864402 55.945129 73 77 76
-27.961876 -15.863574 55.945576 255 220 181
-27.961540 -15.864836 55.944904 137 139 138
-27.961855 -15.863615 55.945534 92 71 92
-27.961641 -15.864367 55.945103 64 68 67
-27.961739 -15.864398 55.945301 78 79 80
-27.961561 -15.864525 55.944954 68 71 72
-27.961815 -15.863626 55.945461 255 231 177
-27.961815 -15.863626 55.945461 255 231 177
-27.961672 -15.864198 55.945171 136 137 138
-27.961866 -15.863676 55.945587 255 245 201
-27.961838 -15.863587 55.945545 77 50 88
-27.961868 -15.863580 55.945618 75 46 60
-27.961628 -15.864290 55.945137 148 151 152
-27.961821 -15.863738 55.945522 127 128 126
-27.961737 -15.863934 55.945358 41 42 43
-27.961811 -15.863723 55.945515 44 42 36
-27.961842 -15.863475 55.945580 214 116 49
-27.961821 -15.863534 55.945538 255 217 183
-27.961811 -15.863494 55.945530 233 139 81
-27.961834 -15.863579 55.945583 178 127 143
-27.961800 -15.863741 55.945518 51 53 48
-27.961800 -15.863668 55.945522 78 56 40
-27.961800 -15.863668 55.945522 78 56 40
-27.961823 -15.863324 55.945572 100 99 97
-27.961531 -15.864714 55.944988 79 80 81
-27.961765 -15.863619 55.945477 255 174 114
-27.961800 -15.863561 55.945545 95 37 57
-27.961824 -15.863540 55.945606 58 29 51
-27.961603 -15.864430 55.945168 76 78 77
-27.961603 -15.864430 55.945168 76 78 77
-27.961754 -15.863717 55.945473 44 38 33
-27.961819 -15.863614 55.945602 255 199 123
-27.961819 -15.863614 55.945602 255 199 123
-27.961782 -15.863703 55.945545 255 249 213
-27.961761 -15.863736 55.945511 50 37 30
-27.961733 -15.863838 55.945477 52 54 53
-27.961805 -15.863511 55.945621 168 107 92
-27.961805 -15.863511 55.945621 168 107 92
-27.961817 -15.863648 55.945652 104 46 0
-27.961742 -15.863721 55.945503 254 253 244
-27.961742 -15.863721 55.945503 254 253 244
-27.961731 -15.863847 55.945496 142 144 143
-27.961704 -15.863818 55.945461 102 87 73
-27.961763 -15.863827 55.945583 46 41 36
-27.961773 -15.863678 55.945614 255 191 114
-27.961548 -15.864305 55.945168 142 143 144
-27.961760 -15.863726 55.945591 35 33 28
-27.961760 -15.863726 55.945591 35 33 28
-27.961517 -15.864682 55.945133 136 137 138
-27.961666 -15.863902 55.945438 89 88 90
-27.961683 -15.863811 55.945477 255 189 144
-27.961742 -15.863698 55.945602 250 191 170
-27.961735 -15.863795 55.945587 255 255 252
-27.961704 -15.863953 55.945545 36 36 36
-27.961552 -15.864674 55.945244 78 82 81
-27.961737 -15.863818 55.945618 255 255 249
-27.961737 -15.863818 55.945618 255 255 249
-27.961531 -15.864445 55.945213 82 86 85
-27.961731 -15.863683 55.945621 50 32 26
-27.961756 -15.863783 55.945679 255 200 145
-27.961836 -15.863167 55.945835 120 122 121
-27.961836 -15.863167 55.945835 120 122 121
-27.961836 -15.863167 55.945835 120 122 121
-27.961708 -15.863476 55.945591 109 104 100
-27.961735 -15.863751 55.945652 255 195 122
-27.961735 -15.863751 55.945652 255 195 122
-27.961594 -15.864019 55.945374 56 61 64
-27.961729 -15.863920 55.945648 239 178 139
-27.961493 -15.864687 55.945175 135 137 136
-27.961725 -15.863804 55.945644 30 32 27
-27.961567 -15.864339 55.945347 69 70 71
-27.961456 -15.864517 55.945133 70 72 71
-27.961718 -15.863770 55.945660 227 171 130
-27.961693 -15.863836 55.945614 255 252 209
-27.961720 -15.863887 55.945675 255 168 102
-27.961693 -15.863876 55.945625 255 167 101
-27.961536 -15.864291 55.945335 89 92 89
-27.961676 -15.863551 55.945610 87 81 77
-27.961676 -15.863791 55.945618 112 38 1
-27.961658 -15.863922 55.945587 64 57 89
-27.961491 -15.864425 55.945255 74 78 77
-27.961639 -15.863956 55.945557 50 48 43
-27.961723 -15.863375 55.945721 65 67 66
-27.961632 -15.863754 55.945549 96 23 0
-27.961672 -15.863797 55.945633 255 192 140
-27.961750 -15.863383 55.945789 114 116 115
-27.961750 -15.863383 55.945789 114 116 115
-27.961451 -15.864605 55.945213 141 143 142
-27.961451 -15.864605 55.945213 141 143 142
-27.961737 -15.863819 55.945789 255 166 118
-27.961645 -15.863924 55.945610 249 247 255
-27.961670 -15.863733 55.945667 54 24 7
-27.961630 -15.863635 55.945583 35 22 15
-27.961439 -15.864539 55.945213 86 87 88
-27.961592 -15.864251 55.945522 71 72 73
-27.961483 -15.864470 55.945305 145 146 147
-27.961676 -15.863548 55.945690 106 103 101
-27.961601 -15.863972 55.945549 59 63 62
-27.961378 -15.864861 55.945110 75 78 79
-27.961601 -15.863689 55.945572 36 14 0
-27.961590 -15.864027 55.945553 241 255 255
-27.961451 -15.864373 55.945286 68 72 71
-27.961451 -15.864373 55.945286 68 72 71
-27.961517 -15.864001 55.945435 97 100 101
-27.961634 -15.863921 55.945667 47 38 95
-27.961634 -15.863921 55.945667 47 38 95
-27.961542 -15.864145 55.945499 72 75 76
-27.961599 -15.863974 55.945625 83 82 80
-27.961645 -15.863963 55.945732 255 178 150
-27.961554 -15.864011 55.945557 204 216 222
-27.961636 -15.863895 55.945721 245 194 193
-27.961636 -15.863895 55.945721 245 194 193
-27.961605 -15.863863 55.945667 112 62 61
-27.961464 -15.864178 55.945393 57 60 61
-27.961645 -15.863671 55.945755 95 87 82
-27.961473 -15.864444 55.945419 142 145 146
-27.961632 -15.863838 55.945744 255 161 103
-27.961611 -15.863910 55.945709 59 29 64
-27.961594 -15.863982 55.945686 250 254 253
-27.961594 -15.863982 55.945686 250 254 253
-27.961611 -15.863592 55.945724 51 50 48
-27.961575 -15.863848 55.945663 47 30 58
-27.961552 -15.863891 55.945637 230 152 156
-27.961578 -15.863963 55.945705 239 233 215
-27.961636 -15.863605 55.945824 72 74 73
-27.961613 -15.864012 55.945774 226 232 231
-27.961586 -15.863998 55.945724 225 230 227
-27.961521 -15.863888 55.945602 120 70 44
-27.961596 -15.863966 55.945751 111 80 60
-27.961546 -15.864001 55.945656 72 76 75
-27.961359 -15.864820 55.945282 74 76 75
-27.961380 -15.864582 55.945332 117 118 119
-27.961346 -15.864785 55.945259 66 72 71
-27.961592 -15.863534 55.945782 118 120 119
-27.961586 -15.863676 55.945782 139 140 138
-27.961578 -15.863537 55.945774 56 58 57
-27.961437 -15.864387 55.945522 70 71 72
-27.961601 -15.863567 55.945866 121 125 124
-27.961580 -15.863552 55.945843 60 62 61
-27.961481 -15.864108 55.945656 70 71 72
-27.961481 -15.864076 55.945679 60 63 64
-27.961432 -15.864372 55.945591 139 141 140
-27.961288 -15.864458 55.945312 134 138 137
-27.961555 -15.863588 55.945866 76 78 77
-27.961502 -15.863827 55.945766 52 54 53
-27.961311 -15.864463 55.945457 157 158 159
-27.961329 -15.864461 55.945496 77 78 79
-27.961510 -15.863752 55.945866 66 70 69
-27.961378 -15.864612 55.945602 72 74 73
-27.961342 -15.864461 55.945541 167 168 169
-27.961361 -15.863853 55.945580 134 135 136
-27.961351 -15.864449 55.945564 74 75 78
-27.961494 -15.863668 55.945869 111 114 115
-27.961338 -15.864299 55.945560 66 67 68
-27.961388 -15.864342 55.945671 173 175 174
-27.961432 -15.864233 55.945766 65 69 68
-27.961435 -15.864208 55.945782 173 175 174
-27.961262 -15.864522 55.945438 81 83 82
-27.961262 -15.864522 55.945438 81 83 82
-27.961197 -15.864879 55.945335 150 151 152
-27.961359 -15.864485 55.945667 157 161 160
-27.961485 -15.863622 55.945927 142 146 145
-27.961485 -15.863622 55.945927 142 146 145
-27.961288 -15.864672 55.945534 94 99 100
-27.961395 -15.863830 55.945766 117 120 121
-27.961323 -15.864207 55.945656 125 128 129
-27.961287 -15.864739 55.945595 58 59 60
-27.961035 -15.865391 55.945091 128 130 129
-27.961035 -15.865391 55.945091 128 130 129
-27.961432 -15.864095 55.945900 77 80 81
-27.961418 -15.863840 55.945908 56 57 58
-27.961208 -15.864745 55.945511 71 73 72
-27.961189 -15.864908 55.945484 78 80 79
-27.961489 -15.863701 55.946087 136 137 138
-27.961220 -15.864637 55.945549 80 81 82
-27.961344 -15.864120 55.945801 81 83 82
-27.961422 -15.863829 55.945957 63 64 65
-27.961258 -15.864268 55.945641 139 141 140
-27.961420 -15.863662 55.945969 69 71 70
-27.961409 -15.863826 55.945953 112 113 114
-27.961260 -15.864507 55.945660 51 52 53
-27.961386 -15.863803 55.945919 85 86 87
-27.961308 -15.864188 55.945766 147 148 149
-27.961229 -15.864645 55.945610 64 65 66
-27.961172 -15.864635 55.945503 77 80 81
-27.961300 -15.864188 55.945774 76 78 77
-27.961222 -15.864397 55.945618 76 78 77
-27.961388 -15.863641 55.945950 136 136 136
-27.961386 -15.863678 55.945961 122 125 126
-27.961357 -15.863594 55.945934 134 138 137
-27.961285 -15.864368 55.945793 83 86 87
-27.961267 -15.864266 55.945766 69 72 73
-27.961430 -15.863873 55.946098 67 70 71
-27.961430 -15.863873 55.946098 67 70 71
-27.961382 -15.863817 55.946014 71 73 72
-27.961246 -15.864398 55.945747 128 129 130
-27.961355 -15.863815 55.945965 132 134 133
-27.961386 -15.863924 55.946072 74 77 78
-27.961136 -15.864778 55.945602 142 144 143
-27.961237 -15.864196 55.945808 122 126 125
-27.961191 -15.864804 55.945755 118 119 120
-27.961308 -15.864039 55.945999 115 119 118
-27.961334 -15.864020 55.946056 62 66 65
-27.961275 -15.863872 55.945934 68 72 71
-27.961340 -15.863872 55.946079 129 131 130
-27.961130 -15.864805 55.945667 71 73 72
-27.961338 -15.864017 55.946083 133 137 136
-27.961136 -15.864829 55.945694 89 91 90
-27.961306 -15.863992 55.946033 66 69 70
-27.961308 -15.863770 55.946072 133 136 137
-27.961281 -15.864144 55.946022 68 71 72
-27.961151 -15.864589 55.945782 79 80 81
-27.961151 -15.864589 55.945782 79 80 81
-27.961210 -15.864178 55.945904 153 156 157
-27.961256 -15.864221 55.945999 75 77 76
-27.961214 -15.864387 55.945919 80 83 84
-27.961222 -15.864128 55.945950 124 127 128
-27.961113 -15.864555 55.945763 119 120 121
-27.961199 -15.864124 55.945950 135 136 137
-27.961161 -15.864613 55.945877 133 137 136
-27.961187 -15.864531 55.945934 111 113 112
-27.961029 -15.864849 55.945648 108 112 111
-27.961029 -15.864849 55.945648 108 112 111
-27.961138 -15.864445 55.945877 77 79 78
-27.961018 -15.864857 55.945641 75 76 77
-27.961205 -15.864249 55.946026 79 81 80
-27.961214 -15.864154 55.946049 71 72 73
-27.961088 -15.864429 55.945805 129 131 130
-27.961069 -15.864755 55.945770 79 83 82
-27.961176 -15.864088 55.945984 115 118 119
-27.961176 -15.864088 55.945984 115 118 119
-27.961224 -15.864105 55.946087 70 73 74
-27.961069 -15.864635 55.945805 157 159 158
-27.961069 -15.864635 55.945805 157 159 158
-27.961241 -15.863858 55.946148 149 150 151
-27.960985 -15.864982 55.945641 70 72 71
-27.961227 -15.863884 55.946136 126 130 129
-27.961124 -15.864521 55.945961 148 151 152
-27.961170 -15.864264 55.946102 71 74 77
-27.961136 -15.864084 55.946152 64 66 65
-27.961075 -15.864529 55.946033 118 120 119
-27.961012 -15.864616 55.945927 62 64 63
-27.961044 -15.864484 55.946003 135 139 138
-27.961103 -15.864302 55.946129 132 134 133
-27.960945 -15.864898 55.945850 136 137 138
-27.960922 -15.864900 55.945820 78 81 82
-27.960993 -15.864720 55.945972 64 67 68
-27.961266 -15.863526 55.946518 71 74 75
-27.961037 -15.864553 55.946068 73 75 74
-27.961037 -15.864553 55.946068 73 75 74
-27.961193 -15.863500 55.946388 120 123 124
-27.961056 -15.864369 55.946129 63 64 65
-27.961094 -15.863954 55.946304 65 67 66
-27.961037 -15.864186 55.946198 123 124 125
-27.961138 -15.863993 55.946411 131 133 132
-27.961046 -15.864123 55.946236 137 142 143
-27.961073 -15.864161 55.946293 134 135 136
-27.961115 -15.863817 55.946407 56 59 60
-27.961033 -15.864208 55.946285 53 57 56
-27.961033 -15.864208 55.946285 53 57 56
-27.961050 -15.864386 55.946342 137 141 140
-27.960979 -15.864642 55.946220 64 68 67
-27.961073 -15.863914 55.946404 110 114 113
-27.961073 -15.863914 55.946404 110 114 113
-27.961096 -15.863939 55.946461 71 76 77
-27.961018 -15.863770 55.946304 69 70 71
-27.960939 -15.864648 55.946167 116 120 119
-27.960873 -15.864941 55.946037 75 76 77
-27.960917 -15.864523 55.946125 67 69 68
-27.960966 -15.864493 55.946236 70 72 71
-27.961014 -15.864164 55.946335 71 75 74
-27.961058 -15.864296 55.946449 63 66 67
