ply
format ascii 1.0
element vertex 1090
property float x
property float y
property float z
property uchar red
property uchar green
property uchar blue
end_header
-61.723225 -34.725327 123.413033 150 151 152
-61.723103 -34.724560 123.412796 152 155 156
-61.723103 -34.724560 123.412796 152 155 156
-61.725765 -34.729443 123.418129 198 202 207
-61.723114 -34.725250 123.412857 95 96 97
-61.724655 -34.728092 123.415924 61 54 69
-61.724655 -34.728092 123.415924 61 54 69
-61.725605 -34.729889 123.417847 253 252 254
-61.722801 -34.724522 123.412239 102 103 106
-61.726574 -34.731274 123.419785 136 134 118
-61.723114 -34.725567 123.412880 44 42 42
-61.724018 -34.726692 123.414680 199 127 80
-61.723763 -34.726479 123.414177 123 80 47
-61.723763 -34.726479 123.414177 123 80 47
-61.725819 -34.729527 123.418289 54 53 55
-61.725731 -34.730499 123.418114 254 255 254
-61.724911 -34.729301 123.416489 49 51 50
-61.725700 -34.729851 123.418068 194 196 195
-61.724258 -34.727123 123.415184 255 227 181
-61.724354 -34.727219 123.415390 95 67 60
-61.725727 -34.730015 123.418137 245 246 244
-61.725960 -34.730392 123.418602 169 155 151
-61.727459 -34.732975 123.421608 105 110 111
-61.726334 -34.731026 123.419373 52 49 47
-61.723766 -34.726463 123.414238 216 206 199
-61.725136 -34.728546 123.416969 106 109 112
-61.723000 -34.725918 123.412712 154 146 141
-61.723000 -34.725918 123.412712 154 146 141
-61.725510 -34.729927 123.417732 143 124 115
-61.724628 -34.728096 123.415985 255 182 134
-61.724537 -34.727570 123.415802 252 255 255
-61.726608 -34.731594 123.419945 223 189 142
-61.723728 -34.726391 123.414200 177 172 167
-61.725601 -34.730194 123.417938 255 232 213
-61.724403 -34.727654 123.415558 64 60 60
-61.724403 -34.727654 123.415558 64 60 60
-61.723885 -34.726604 123.414520 121 82 54
-61.725613 -34.729702 123.417984 50 48 48
-61.723919 -34.726826 123.414619 255 241 232
-61.727566 -34.732849 123.421906 227 244 249
-61.723831 -34.726501 123.414444 98 92 88
-61.727417 -34.732769 123.421608 227 244 249
-61.724747 -34.728325 123.416275 234 204 187
-61.726482 -34.731556 123.419762 255 255 235
-61.723137 -34.725430 123.413071 62 59 61
-61.725483 -34.730019 123.417763 255 178 141
-61.723824 -34.725845 123.414444 114 112 112
-61.726059 -34.731071 123.418907 201 209 175
-61.725719 -34.729389 123.418243 182 189 193
-61.726158 -34.730503 123.419128 108 61 34
-61.725536 -34.729195 123.417885 57 67 74
-61.724316 -34.727154 123.415451 113 88 72
-61.723686 -34.726360 123.414200 255 225 178
-61.725933 -34.730492 123.418694 70 59 56
-61.723518 -34.726559 123.413872 133 118 109
-61.725407 -34.729095 123.417648 59 69 76
-61.726753 -34.731747 123.420364 233 186 129
-61.726753 -34.731747 123.420364 233 186 129
-61.724957 -34.728603 123.416763 44 37 36
-61.725845 -34.730160 123.418541 88 74 70
-61.723942 -34.726913 123.414749 97 93 93
-61.727276 -34.732761 123.421417 238 252 255
-61.725533 -34.729294 123.417923 38 39 40
-61.723873 -34.726620 123.414627 255 225 191
-61.725445 -34.729053 123.417763 97 98 106
-61.723511 -34.725616 123.413902 156 155 157
-61.723793 -34.725746 123.414459 84 85 86
-61.726536 -34.731556 123.419960 255 171 102
-61.726318 -34.731209 123.419533 226 223 191
-61.724617 -34.728203 123.416130 106 83 108
-61.723915 -34.726772 123.414726 237 241 240
-61.723396 -34.726513 123.413712 135 135 129
-61.725410 -34.728840 123.417725 158 146 137
-61.726086 -34.730644 123.419075 255 238 201
-61.723431 -34.726086 123.413811 255 190 117
-61.725395 -34.728794 123.417747 255 210 135
-61.724056 -34.726952 123.415077 107 108 109
-61.724728 -34.727844 123.416428 252 253 254
-61.725399 -34.729359 123.417763 52 47 49
-61.724770 -34.728352 123.416512 97 86 149
-61.723431 -34.725540 123.413834 91 94 95
-61.725037 -34.728863 123.417046 59 58 60
-61.725624 -34.729561 123.418228 213 215 214
-61.727478 -34.732754 123.421928 71 77 76
-61.726521 -34.731480 123.420029 255 152 89
-61.726753 -34.732086 123.420494 249 252 253
-61.723629 -34.726387 123.414253 255 225 158
-61.723629 -34.726387 123.414253 255 225 158
-61.724644 -34.728233 123.416298 255 212 182
-61.724026 -34.726776 123.415062 157 150 142
-61.724426 -34.727272 123.415863 85 87 86
-61.725887 -34.730488 123.418777 255 221 187
-61.723839 -34.727348 123.414696 210 211 212
-61.724014 -34.726837 123.415047 225 238 241
-61.724014 -34.726837 123.415047 225 238 241
-61.725834 -34.730522 123.418686 255 255 228
-61.724178 -34.727684 123.415398 255 255 211
-61.724354 -34.727261 123.415749 176 178 177
-61.726204 -34.730476 123.419456 244 225 216
-61.726204 -34.730476 123.419456 244 225 216
-61.725792 -34.729889 123.418633 40 40 40
-61.725056 -34.728973 123.417168 239 192 165
-61.723816 -34.726688 123.414680 253 254 255
-61.723869 -34.726868 123.414795 106 105 107
-61.723991 -34.726906 123.415054 95 96 97
-61.723732 -34.726601 123.414536 255 211 186
-61.722504 -34.724365 123.412071 149 152 153
-61.724133 -34.727295 123.415344 55 55 55
-61.724876 -34.728844 123.416824 91 50 24
-61.725777 -34.730385 123.418648 255 191 127
-61.725506 -34.729362 123.418114 62 58 50
-61.722435 -34.723721 123.411972 152 155 156
-61.726315 -34.731758 123.419724 50 53 50
-61.726315 -34.731758 123.419724 50 53 50
-61.723701 -34.726353 123.414520 155 108 95
-61.723652 -34.726482 123.414421 182 143 129
-61.723652 -34.726482 123.414421 182 143 129
-61.726055 -34.730846 123.419228 255 218 185
-61.723106 -34.725975 123.413330 152 101 87
-61.723648 -34.726383 123.414429 143 118 127
-61.724834 -34.728931 123.416794 59 52 53
-61.724155 -34.727283 123.415436 117 117 117
-61.725689 -34.730350 123.418510 255 232 156
-61.725449 -34.729553 123.418030 41 41 41
-61.725243 -34.729301 123.417625 255 196 142
-61.726566 -34.732323 123.420273 149 164 167
-61.727375 -34.731148 123.421890 210 148 119
-61.722961 -34.724945 123.413078 108 109 110
-61.724487 -34.728237 123.416122 151 141 188
-61.724930 -34.728954 123.417015 255 218 167
-61.726341 -34.731373 123.419830 255 243 209
-61.726341 -34.731373 123.419830 255 243 209
-61.726341 -34.731373 123.419830 255 243 209
-61.726067 -34.730938 123.419289 78 78 78
-61.724518 -34.728191 123.416199 255 252 240
-61.723671 -34.726330 123.414497 186 169 197
-61.723671 -34.726330 123.414497 186 169 197
-61.726795 -34.732433 123.420753 213 230 235
-61.724159 -34.728760 123.415489 101 81 88
-61.726597 -34.731644 123.420357 239 248 221
-61.724670 -34.728947 123.416512 143 108 85
-61.725834 -34.729847 123.418831 87 95 95
-61.723766 -34.726864 123.414719 104 105 106
-61.727077 -34.732735 123.421333 100 110 117
-61.724819 -34.727993 123.416832 66 48 42
-61.726990 -34.732517 123.421181 86 100 106
-61.726982 -34.732510 123.421165 86 100 106
-61.725288 -34.729092 123.417778 73 68 70
-61.723637 -34.726406 123.414490 240 244 255
-61.724808 -34.728863 123.416862 60 60 54
-61.724773 -34.727585 123.416801 135 136 137
-61.723587 -34.726513 123.414444 103 96 152
-61.727097 -34.732540 123.421463 94 107 110
-61.724686 -34.727608 123.416641 57 56 58
-61.725845 -34.730755 123.418961 221 210 237
-61.725845 -34.730755 123.418961 221 210 237
-61.725983 -34.730762 123.419250 255 238 212
-61.724644 -34.728359 123.416573 89 93 146
-61.723473 -34.726357 123.414238 112 94 111
-61.724495 -34.728237 123.416290 96 87 139
-61.723099 -34.725315 123.413498 151 152 153
-61.726982 -34.732525 123.421257 106 116 118
-61.725269 -34.729126 123.417839 254 255 251
-61.725109 -34.729195 123.417519 66 61 63
-61.724449 -34.727493 123.416229 117 117 117
-61.726479 -34.731827 123.420296 244 255 247
-61.722729 -34.724926 123.412788 157 160 161
-61.723385 -34.726200 123.414108 255 205 182
-61.724064 -34.726906 123.415466 102 101 103
-61.725983 -34.730801 123.419312 255 244 255
-61.724697 -34.728615 123.416740 65 48 40
-61.723385 -34.726303 123.414131 255 214 167
-61.725399 -34.730114 123.418159 227 145 104
-61.725079 -34.729046 123.417534 54 59 49
-61.724762 -34.728405 123.416893 202 184 232
-61.723736 -34.726646 123.414848 255 203 176
-61.725262 -34.729477 123.417908 122 113 150
-61.725414 -34.730301 123.418221 255 198 128
-61.725567 -34.729820 123.418541 201 212 215
-61.725185 -34.729328 123.417778 255 245 194
-61.725651 -34.729988 123.418716 69 69 69
-61.725651 -34.729988 123.418716 69 69 69
-61.723392 -34.725761 123.414207 143 145 144
-61.725224 -34.729294 123.417877 195 196 194
-61.726421 -34.731796 123.420288 157 163 157
-61.724625 -34.728931 123.416695 229 234 231
-61.726387 -34.731525 123.420219 255 254 255
-61.726387 -34.731525 123.420219 255 254 255
-61.726360 -34.730595 123.420181 55 52 50
-61.726532 -34.731842 123.420525 227 235 229
-61.725842 -34.730625 123.419159 134 92 110
-61.725243 -34.729481 123.417961 246 236 255
-61.725243 -34.729481 123.417961 246 236 255
-61.725029 -34.729214 123.417534 146 146 140
-61.723763 -34.727329 123.415009 68 69 70
-61.723457 -34.726536 123.414398 113 102 98
-61.724251 -34.727539 123.415993 86 87 88
-61.725456 -34.729752 123.418404 213 216 217
-61.725567 -34.729885 123.418625 60 59 61
-61.725822 -34.730789 123.419128 134 92 120
-61.724880 -34.728699 123.417259 106 58 41
-61.725655 -34.730576 123.418816 178 162 214
-61.723282 -34.726692 123.414078 227 227 227
-61.724846 -34.728756 123.417221 119 61 38
-61.725605 -34.729939 123.418762 71 71 71
-61.726192 -34.731174 123.419930 87 88 89
-61.723568 -34.725719 123.414696 152 153 154
-61.724747 -34.728649 123.417053 68 55 48
-61.723946 -34.727074 123.415443 108 109 110
-61.725067 -34.729256 123.417709 151 155 154
-61.725067 -34.729256 123.417709 151 155 154
-61.723892 -34.726807 123.415359 145 142 144
-61.726082 -34.730865 123.419739 97 73 121
-61.723263 -34.726784 123.414124 226 225 227
-61.724979 -34.729443 123.417557 252 251 249
-61.723248 -34.725662 123.414108 157 158 159
-61.724007 -34.727718 123.415634 57 50 49
-61.726086 -34.730072 123.419785 251 249 249
-61.724030 -34.727261 123.415688 231 230 232
-61.723408 -34.726093 123.414436 135 132 134
-61.724991 -34.729378 123.417625 111 100 143
-61.724880 -34.728901 123.417404 68 51 49
-61.724361 -34.728695 123.416397 186 161 153
-61.723469 -34.726665 123.414612 127 126 128
-61.726086 -34.730621 123.419838 140 129 139
-61.724781 -34.729317 123.417259 246 248 247
-61.723373 -34.726433 123.414459 115 108 107
-61.724415 -34.729034 123.416542 246 236 247
-61.723995 -34.727570 123.415703 243 246 247
-61.723106 -34.726101 123.413940 113 102 89
-61.723709 -34.727165 123.415154 75 75 75
-61.723843 -34.726971 123.415436 82 83 84
-61.724972 -34.729015 123.417686 255 169 134
-61.726498 -34.732315 123.420753 112 124 125
-61.725761 -34.730255 123.419304 68 69 70
-61.726025 -34.731251 123.419838 84 85 86
-61.725643 -34.730770 123.419083 58 57 61
-61.724884 -34.729492 123.417572 106 111 112
-61.726139 -34.731014 123.420082 255 253 248
-61.723331 -34.726280 123.414482 113 108 104
-61.724953 -34.729118 123.417725 52 49 47
-61.725658 -34.730160 123.419136 88 89 90
-61.725220 -34.729393 123.418266 173 144 132
-61.724907 -34.728561 123.417648 105 73 78
-61.726528 -34.732307 123.420891 99 109 111
-61.724602 -34.728733 123.417061 70 63 62
-61.724361 -34.728245 123.416588 234 189 171
-61.725613 -34.730774 123.419083 238 240 239
-61.725189 -34.729816 123.418259 119 120 121
-61.725189 -34.729816 123.418259 119 120 121
-61.724052 -34.727318 123.416008 69 70 71
-61.723328 -34.726398 123.414558 255 255 254
-61.724991 -34.728710 123.417885 113 63 62
-61.725540 -34.730133 123.418991 162 163 164
-61.725540 -34.730133 123.418991 162 163 164
-61.725250 -34.729362 123.418419 255 187 146
-61.724087 -34.726929 123.416092 84 85 86
-61.726810 -34.732430 123.421532 98 103 106
-61.724674 -34.728512 123.417274 105 73 94
-61.725498 -34.730690 123.418915 248 248 248
-61.725498 -34.730690 123.418915 248 248 248
-61.726482 -34.732059 123.420883 98 101 102
-61.725494 -34.729622 123.418938 68 63 67
-61.726532 -34.732105 123.420990 95 96 97
-61.724716 -34.728432 123.417381 195 146 109
-61.725124 -34.729206 123.418205 137 129 125
-61.724621 -34.728592 123.417213 255 196 139
-61.726562 -34.732277 123.421097 149 154 157
-61.723278 -34.726009 123.414551 81 82 83
-61.725040 -34.729477 123.418098 55 54 56
-61.723850 -34.727520 123.415718 51 48 50
-61.724312 -34.728004 123.416649 221 214 215
-61.724007 -34.727207 123.416039 99 100 101
-61.723885 -34.726994 123.415794 102 105 106
-61.724163 -34.728325 123.416359 255 214 149
-61.725063 -34.728764 123.418167 112 103 140
-61.725056 -34.729282 123.418159 80 57 44
-61.725330 -34.729702 123.418716 75 74 76
-61.723305 -34.726578 123.414673 115 117 116
-61.724411 -34.728310 123.416901 255 252 251
-61.722141 -34.724804 123.412369 91 94 97
-61.724270 -34.727650 123.416626 54 54 54
-61.722588 -34.724415 123.413261 152 155 158
-61.724712 -34.728989 123.417519 59 47 38
-61.724865 -34.728813 123.417816 255 207 169
-61.725239 -34.729706 123.418571 99 101 100
-61.725388 -34.729637 123.418877 51 43 38
-61.726185 -34.731117 123.420479 119 120 121
-61.724400 -34.728405 123.416901 255 254 255
-61.725174 -34.730091 123.418457 96 98 97
-61.724354 -34.728378 123.416809 254 253 255
-61.724293 -34.727364 123.416702 108 109 112
-61.724186 -34.728577 123.416504 84 62 51
-61.723999 -34.727955 123.416130 181 145 145
-61.724335 -34.728718 123.416817 87 37 11
-61.724850 -34.729328 123.417847 238 196 178
-61.725578 -34.730373 123.419312 99 101 100
-61.725689 -34.730110 123.419525 190 193 190
-61.722523 -34.725525 123.413200 141 144 147
-61.724354 -34.728432 123.416870 133 107 141
-61.726025 -34.731255 123.420204 101 105 104
-61.724873 -34.729588 123.417923 60 63 60
-61.724873 -34.729588 123.417923 60 63 60
-61.723984 -34.727123 123.416145 118 117 119
-61.725105 -34.730152 123.418388 101 102 103
-61.725647 -34.730927 123.419472 121 125 124
-61.724251 -34.728096 123.416687 255 252 248
-61.724258 -34.728367 123.416710 96 85 117
-61.724186 -34.727623 123.416580 75 76 77
-61.724247 -34.727604 123.416695 58 59 60
-61.724247 -34.727604 123.416695 58 59 60
-61.725441 -34.729740 123.419098 66 53 71
-61.725311 -34.729893 123.418831 249 250 251
-61.724907 -34.729122 123.418037 255 205 144
-61.725315 -34.729462 123.418854 106 50 19
-61.727631 -34.734047 123.423492 166 167 168
-61.727631 -34.734047 123.423492 166 167 168
-61.725056 -34.729187 123.418343 255 220 157
-61.726551 -34.731888 123.421333 155 156 157
-61.723942 -34.726719 123.416115 113 115 114
-61.723511 -34.726959 123.415260 112 113 116
-61.724045 -34.728069 123.416336 255 217 182
-61.724091 -34.728287 123.416435 220 212 241
-61.724327 -34.727551 123.416908 97 98 99
-61.723843 -34.727737 123.415947 34 33 31
-61.724400 -34.728798 123.417061 87 50 30
-61.724773 -34.728024 123.417809 72 72 72
-61.723442 -34.726231 123.415146 179 182 183
-61.724667 -34.728756 123.417595 255 223 201
-61.725945 -34.731270 123.420151 115 118 119
-61.723473 -34.726273 123.415207 92 95 96
-61.724949 -34.729794 123.418167 92 92 92
-61.725426 -34.730412 123.419128 244 246 245
-61.724609 -34.728897 123.417496 97 80 72
-61.724632 -34.729141 123.417557 255 223 165
-61.725204 -34.729752 123.418701 102 93 92
-61.724663 -34.729313 123.417633 255 199 160
-61.724632 -34.730103 123.417564 108 110 109
-61.724079 -34.727478 123.416466 161 162 163
-61.724480 -34.728554 123.417267 156 123 122
-61.725128 -34.729675 123.418571 98 83 99
-61.726952 -34.732796 123.422211 102 103 106
-61.724644 -34.728958 123.417625 89 62 44
-61.724407 -34.728474 123.417160 246 249 255
-61.724014 -34.727455 123.416389 92 93 94
-61.724098 -34.727592 123.416565 138 139 140
-61.725643 -34.730316 123.419655 124 125 128
-61.724220 -34.728416 123.416824 97 79 87
-61.724522 -34.728813 123.417427 255 240 195
-61.725521 -34.729908 123.419434 133 123 164
-61.724239 -34.728714 123.416862 251 247 247
-61.724754 -34.728249 123.417900 48 44 44
-61.723667 -34.726631 123.415733 79 80 81
-61.723942 -34.727703 123.416283 40 38 38
-61.724918 -34.729851 123.418236 129 132 133
-61.724792 -34.728401 123.417984 194 115 65
-61.724072 -34.727619 123.416550 125 127 126
-61.724262 -34.728130 123.416931 255 201 146
-61.726505 -34.731888 123.421417 95 98 99
-61.726505 -34.731888 123.421417 95 98 99
-61.723385 -34.726578 123.415184 79 81 80
-61.723782 -34.726936 123.415985 89 89 89
-61.726448 -34.732166 123.421310 96 99 100
-61.724129 -34.728317 123.416679 91 82 125
-61.724941 -34.730076 123.418312 138 139 140
-61.725563 -34.730274 123.419556 86 87 90
-61.724731 -34.728989 123.417900 91 80 77
-61.724731 -34.728989 123.417900 91 80 77
-61.724781 -34.729122 123.417999 255 235 176
-61.724415 -34.728508 123.417274 117 102 146
-61.724415 -34.728508 123.417274 117 102 146
-61.724422 -34.728653 123.417305 255 234 178
-61.723881 -34.727535 123.416222 96 98 97
-61.724739 -34.729172 123.417938 255 254 255
-61.724739 -34.729172 123.417938 255 254 255
-61.724865 -34.729549 123.418205 89 80 142
-61.724957 -34.729702 123.418388 73 71 71
-61.726562 -34.731941 123.421600 162 165 166
-61.726318 -34.731548 123.421112 88 91 92
-61.726318 -34.731548 123.421112 88 91 92
-61.726727 -34.732372 123.421936 156 159 160
-61.723518 -34.726933 123.415550 88 87 85
-61.725735 -34.730335 123.419983 87 90 91
-61.724464 -34.729012 123.417450 61 55 54
-61.724098 -34.728077 123.416725 255 190 134
-61.725845 -34.730366 123.420204 100 103 104
-61.723492 -34.726562 123.415512 161 162 163
-61.723644 -34.726925 123.415825 70 69 71
-61.724609 -34.728924 123.417755 71 50 47
-61.725559 -34.730164 123.419670 231 238 242
-61.725746 -34.730370 123.420044 177 180 183
-61.724449 -34.727829 123.417465 188 183 178
-61.725105 -34.729939 123.418785 94 99 102
-61.723846 -34.727276 123.416260 87 84 86
-61.724262 -34.728455 123.417099 154 97 115
-61.724686 -34.729279 123.417946 255 255 221
-61.724854 -34.729706 123.418289 248 251 252
-61.724854 -34.729706 123.418289 248 251 252
-61.723572 -34.726608 123.415733 102 103 104
-61.724968 -34.729523 123.418526 255 211 147
-61.722813 -34.725784 123.414215 91 94 95
-61.724693 -34.729187 123.417976 63 47 49
-61.724693 -34.729187 123.417976 63 47 49
-61.723602 -34.726910 123.415810 177 178 179
-61.724869 -34.729588 123.418335 233 228 255
-61.724140 -34.728088 123.416878 195 122 89
-61.724537 -34.729256 123.417686 255 245 205
-61.725456 -34.730003 123.419525 242 231 222
-61.725716 -34.730675 123.420052 102 103 104
-61.724640 -34.728985 123.417900 127 102 95
-61.724014 -34.727875 123.416664 178 175 173
-61.724384 -34.728638 123.417419 255 221 152
-61.724670 -34.729469 123.417999 122 116 175
-61.723495 -34.726669 123.415649 151 153 152
-61.724686 -34.729092 123.418022 255 226 137
-61.724346 -34.728649 123.417351 121 59 8
-61.725208 -34.730011 123.419098 95 98 99
-61.723476 -34.726685 123.415634 88 90 89
-61.723461 -34.726921 123.415619 173 172 174
-61.724880 -34.729309 123.418457 147 111 92
-61.724979 -34.729790 123.418655 247 251 250
-61.725151 -34.729942 123.419006 229 237 237
-61.726933 -34.732815 123.422569 161 164 165
-61.726933 -34.732815 123.422569 161 164 165
-61.724533 -34.728905 123.417786 78 55 47
-61.724171 -34.727703 123.417053 85 79 78
-61.722813 -34.725880 123.414352 158 161 162
-61.725655 -34.731258 123.420036 252 255 255
-61.725655 -34.731258 123.420036 252 255 255
-61.724014 -34.728100 123.416756 128 76 54
-61.724655 -34.729237 123.418030 255 233 172
-61.723511 -34.726933 123.415749 102 101 103
-61.723846 -34.727806 123.416435 246 241 237
-61.724358 -34.728340 123.417450 91 61 54
-61.724529 -34.728264 123.417801 84 84 84
-61.723953 -34.726795 123.416656 98 99 100
-61.723698 -34.727234 123.416153 106 105 107
-61.724903 -34.729645 123.418564 83 84 153
-61.726471 -34.732193 123.421692 98 101 102
-61.725315 -34.730152 123.419388 168 169 172
-61.724384 -34.728603 123.417526 255 203 143
-61.724808 -34.728920 123.418381 253 186 148
-61.723713 -34.727184 123.416199 182 181 183
-61.723099 -34.725895 123.414970 143 146 147
-61.723686 -34.726578 123.416153 96 99 102
-61.724644 -34.728348 123.418060 100 100 100
-61.725689 -34.730595 123.420151 79 80 83
-61.725525 -34.730316 123.419830 72 75 78
-61.724400 -34.728470 123.417572 208 171 175
-61.723217 -34.726292 123.415230 200 203 206
-61.724468 -34.729053 123.417740 80 53 37
-61.723812 -34.727222 123.416428 86 87 88
-61.724251 -34.728539 123.417320 107 53 17
-61.724392 -34.728649 123.417610 87 66 53
-61.724514 -34.728935 123.417870 255 203 156
-61.724514 -34.728935 123.417870 255 203 156
-61.725941 -34.730904 123.420746 108 111 112
-61.722618 -34.725605 123.414093 185 186 189
-61.725231 -34.731010 123.419327 130 129 131
-61.723644 -34.727219 123.416168 171 170 172
-61.724976 -34.729729 123.418831 100 70 94
-61.724712 -34.729839 123.418312 151 152 153
-61.725128 -34.729847 123.419159 255 229 222
-61.724709 -34.729053 123.418327 79 42 26
-61.724110 -34.728687 123.417122 104 87 79
-61.723396 -34.726852 123.415718 90 91 92
-61.723396 -34.726852 123.415718 90 91 92
-61.724693 -34.729195 123.418312 255 176 145
-61.723568 -34.726559 123.416069 93 94 95
-61.724922 -34.729958 123.418777 73 74 75
-61.724033 -34.727795 123.417007 190 191 192
-61.724266 -34.727997 123.417473 85 86 87
-61.724155 -34.727730 123.417274 94 95 96
-61.724155 -34.727730 123.417274 94 95 96
-61.724758 -34.729191 123.418472 67 45 34
-61.724529 -34.728645 123.418015 69 65 65
-61.723461 -34.726437 123.415894 155 156 157
-61.724163 -34.727921 123.417305 178 179 180
-61.724163 -34.727921 123.417305 178 179 180
-61.726002 -34.731606 123.420982 158 161 162
-61.723396 -34.726997 123.415779 101 102 103
-61.723396 -34.726997 123.415779 101 102 103
-61.725403 -34.730907 123.419792 145 148 149
-61.725479 -34.730602 123.419937 178 181 182
-61.724426 -34.728699 123.417847 62 63 64
-61.724426 -34.728699 123.417847 62 63 64
-61.724449 -34.728676 123.417885 183 184 185
-61.723259 -34.726376 123.415520 153 154 155
-61.724850 -34.729954 123.418694 91 92 93
-61.724850 -34.729954 123.418694 91 92 93
-61.724213 -34.728325 123.417427 83 82 84
-61.725307 -34.730339 123.419617 91 92 93
-61.723194 -34.726448 123.415405 100 101 102
-61.725349 -34.730968 123.419724 142 145 146
-61.726585 -34.732269 123.422203 145 148 149
-61.725918 -34.731190 123.420860 94 97 98
-61.726357 -34.731861 123.421753 161 164 165
-61.726357 -34.731861 123.421753 161 164 165
-61.725754 -34.730663 123.420555 173 174 175
-61.725853 -34.731121 123.420746 167 168 169
-61.724541 -34.729340 123.418129 255 213 159
-61.725006 -34.729160 123.419083 71 71 71
-61.724491 -34.728844 123.418060 164 164 164
-61.724491 -34.728844 123.418060 164 164 164
-61.725773 -34.730919 123.420639 108 109 110
-61.722755 -34.726368 123.414604 104 105 106
-61.724590 -34.729141 123.418289 151 146 148
-61.725052 -34.729519 123.419220 152 91 65
-61.723343 -34.726601 123.415802 106 107 108
-61.726082 -34.731281 123.421280 87 88 89
-61.724327 -34.728344 123.417786 153 154 155
-61.724655 -34.729362 123.418442 139 106 91
-61.724667 -34.728970 123.418465 81 80 82
-61.725147 -34.730042 123.419426 157 160 161
-61.724094 -34.727997 123.417336 177 178 179
-61.724747 -34.729691 123.418640 99 100 101
-61.723133 -34.726681 123.415436 101 104 105
-61.725742 -34.731411 123.420662 102 105 106
-61.724712 -34.729622 123.418602 189 186 190
-61.725754 -34.731289 123.420700 208 209 210
-61.724213 -34.728004 123.417633 171 172 173
-61.724213 -34.728004 123.417633 171 172 173
-61.726074 -34.732655 123.421371 141 145 144
-61.723297 -34.726906 123.415817 96 97 98
-61.723988 -34.727768 123.417213 170 171 172
-61.723988 -34.727768 123.417213 170 171 172
-61.724506 -34.728817 123.418251 79 80 83
-61.727360 -34.733906 123.423958 151 154 157
-61.724049 -34.728344 123.417336 87 88 89
-61.724716 -34.729286 123.418694 79 80 81
-61.724411 -34.728958 123.418106 88 89 90
-61.723827 -34.727509 123.416962 197 200 203
-61.725643 -34.730770 123.420586 94 95 96
-61.726978 -34.733021 123.423248 130 135 136
-61.723812 -34.727856 123.416931 88 89 90
-61.723503 -34.727242 123.416321 87 88 89
-61.725945 -34.731621 123.421211 92 93 94
-61.724327 -34.728821 123.417984 89 90 91
-61.724327 -34.728821 123.417984 89 90 91
-61.723473 -34.727207 123.416275 166 167 168
-61.724331 -34.728687 123.417992 89 90 93
-61.724663 -34.729530 123.418663 157 158 159
-61.725708 -34.731258 123.420761 169 170 171
-61.725811 -34.731293 123.420967 78 79 80
-61.725826 -34.731510 123.420998 103 104 105
-61.726986 -34.733028 123.423325 93 96 97
-61.724804 -34.729073 123.418961 179 180 181
-61.723671 -34.727104 123.416695 84 85 86
-61.723907 -34.727669 123.417168 190 191 192
-61.722916 -34.726017 123.415199 171 176 177
-61.723946 -34.728069 123.417252 95 96 97
-61.723507 -34.727001 123.416405 151 152 153
-61.722622 -34.725842 123.414642 101 106 107
-61.723488 -34.727364 123.416374 196 197 200
-61.724800 -34.729507 123.418999 90 91 92
-61.724800 -34.729507 123.418999 90 91 92
-61.724148 -34.728313 123.417702 95 96 97
-61.723831 -34.727859 123.417076 101 102 103
-61.721146 -34.723232 123.411728 154 157 160
-61.725555 -34.730526 123.420532 103 104 105
-61.726414 -34.732540 123.422264 101 102 103
-61.725075 -34.730106 123.419594 88 87 89
-61.725075 -34.730106 123.419594 88 87 89
-61.726360 -34.732265 123.422165 171 172 173
-61.725609 -34.731232 123.420662 88 91 92
-61.724617 -34.729275 123.418686 108 109 110
-61.724617 -34.729275 123.418686 108 109 110
-61.725723 -34.731152 123.420914 105 106 107
-61.725922 -34.731812 123.421303 97 100 101
-61.725922 -34.731812 123.421303 97 100 101
-61.723259 -34.727150 123.415993 146 147 148
-61.725811 -34.731522 123.421097 158 161 162
-61.725494 -34.731411 123.420464 90 91 92
-61.724751 -34.729530 123.418976 91 90 94
-61.724979 -34.729904 123.419441 105 106 107
-61.724331 -34.728828 123.418152 171 172 173
-61.724331 -34.728828 123.418152 171 172 173
-61.726395 -34.732239 123.422279 177 182 183
-61.724644 -34.729263 123.418785 78 79 80
-61.724644 -34.729263 123.418785 78 79 80
-61.725376 -34.731133 123.420258 110 111 112
-61.724941 -34.729671 123.419388 173 172 174
-61.722717 -34.725491 123.414955 88 91 92
-61.723175 -34.726536 123.415863 189 192 193
-61.726189 -34.731743 123.421906 105 106 107
-61.726189 -34.731743 123.421906 105 106 107
-61.724869 -34.729073 123.419281 82 83 84
-61.724987 -34.729851 123.419518 88 89 90
-61.722870 -34.726658 123.415298 103 104 105
-61.722038 -34.725277 123.413658 155 156 157
-61.724403 -34.728859 123.418381 179 180 181
-61.725891 -34.731567 123.421371 165 168 169
-61.723366 -34.727318 123.416321 163 166 167
-61.723595 -34.727615 123.416817 87 90 91
-61.725124 -34.730221 123.419876 106 107 108
-61.724491 -34.729210 123.418610 90 91 92
-61.724171 -34.728844 123.417992 102 103 104
-61.725098 -34.729820 123.419838 92 93 94
-61.725067 -34.730221 123.419800 199 200 201
-61.725067 -34.730221 123.419800 199 200 201
-61.724365 -34.728519 123.418381 95 94 96
-61.726181 -34.732128 123.422020 168 169 172
-61.724720 -34.729282 123.419113 173 174 175
-61.725704 -34.730995 123.421082 169 170 171
-61.724327 -34.728550 123.418335 77 76 78
-61.725872 -34.731388 123.421425 156 159 160
-61.724735 -34.729332 123.419159 76 77 78
-61.724575 -34.729656 123.418846 111 112 113
-61.724102 -34.728565 123.417908 182 183 184
-61.725586 -34.731304 123.420860 89 92 93
-61.723877 -34.727890 123.417450 68 69 72
-61.725403 -34.730595 123.420502 100 103 104
-61.724056 -34.728157 123.417824 90 91 92
-61.724621 -34.729439 123.418945 92 93 94
-61.723530 -34.727360 123.416763 170 171 172
-61.725777 -34.731552 123.421265 161 164 165
-61.723309 -34.726986 123.416344 182 183 184
-61.722858 -34.726688 123.415451 158 159 160
-61.726700 -34.733429 123.423126 155 160 161
-61.726700 -34.733429 123.423126 155 160 161
-61.723236 -34.726974 123.416214 101 102 103
-61.725700 -34.731045 123.421150 101 104 105
-61.725700 -34.731045 123.421150 101 104 105
-61.725338 -34.730927 123.420433 99 102 103
-61.725430 -34.731007 123.420616 177 180 181
-61.723976 -34.727970 123.417732 103 104 105
-61.722710 -34.726391 123.415207 176 179 180
-61.723351 -34.727314 123.416504 164 165 166
-61.726440 -34.732681 123.422676 91 92 93
-61.726440 -34.732681 123.422676 91 92 93
-61.723217 -34.727524 123.416229 155 156 157
-61.725319 -34.730804 123.420441 79 82 83
-61.724285 -34.729046 123.418365 68 69 70
-61.723949 -34.728516 123.417709 85 86 87
-61.724964 -34.730011 123.419754 95 98 99
-61.723164 -34.726715 123.416161 162 163 164
-61.723789 -34.728630 123.417412 83 84 85
-61.724800 -34.729801 123.419434 80 81 82
-61.722469 -34.725765 123.414772 156 159 160
-61.725769 -34.731213 123.421364 95 96 97
-61.723011 -34.726570 123.415863 105 108 109
-61.724617 -34.729401 123.419106 79 78 80
-61.724617 -34.729401 123.419106 79 78 80
-61.724491 -34.729767 123.418854 165 168 169
-61.725140 -34.730976 123.420174 80 81 82
-61.726166 -34.732361 123.422218 106 109 110
-61.724384 -34.728886 123.418663 75 76 77
-61.724125 -34.728603 123.418137 94 95 96
-61.724113 -34.728432 123.418121 74 73 77
-61.724113 -34.728432 123.418121 74 73 77
-61.723999 -34.728592 123.417900 76 77 78
-61.723999 -34.728592 123.417900 76 77 78
-61.724739 -34.729458 123.419395 153 154 155
-61.725815 -34.731216 123.421555 113 114 115
-61.725708 -34.731518 123.421356 79 80 81
-61.724819 -34.729858 123.419579 96 97 98
-61.723484 -34.727497 123.416916 193 194 195
-61.725193 -34.731255 123.420326 154 157 158
-61.724304 -34.728733 123.418556 152 153 154
-61.723011 -34.727119 123.415977 83 84 85
-61.724365 -34.728798 123.418686 85 86 87
-61.724560 -34.729401 123.419083 92 91 93
-61.724998 -34.730049 123.419983 81 82 83
-61.726994 -34.733978 123.423973 164 167 170
-61.726135 -34.732342 123.422256 146 149 150
-61.723969 -34.728737 123.417923 98 99 100
-61.724899 -34.729931 123.419800 106 107 108
-61.723598 -34.728199 123.417198 72 73 74
-61.725307 -34.729969 123.420624 101 104 105
-61.725906 -34.731682 123.421829 98 101 102
-61.724213 -34.728760 123.418442 79 80 81
-61.724586 -34.729424 123.419197 178 179 180
-61.725407 -34.731483 123.420837 96 97 98
-61.723766 -34.728233 123.417564 84 85 86
-61.723949 -34.728592 123.417931 160 159 161
-61.723442 -34.727310 123.416939 141 144 147
-61.723568 -34.727650 123.417198 84 85 86
-61.723568 -34.727650 123.417198 84 85 86
-61.725880 -34.731461 123.421814 86 89 90
-61.725201 -34.730709 123.420464 78 81 82
-61.725201 -34.730709 123.420464 78 81 82
-61.722748 -34.726662 123.415565 104 105 106
-61.724281 -34.728775 123.418633 81 82 83
-61.724106 -34.728306 123.418289 98 99 100
-61.724026 -34.728802 123.418129 72 73 74
-61.724823 -34.730049 123.419731 175 176 177
-61.724796 -34.730019 123.419685 79 80 81
-61.722698 -34.726334 123.415497 150 153 154
-61.722614 -34.725880 123.415329 161 164 165
-61.726173 -34.732288 123.422455 182 185 186
-61.723694 -34.727158 123.417496 105 106 107
-61.723694 -34.727158 123.417496 105 106 107
-61.723442 -34.727425 123.417023 184 185 188
-61.725163 -34.730610 123.420456 99 102 103
-61.725266 -34.730537 123.420670 171 172 173
-61.725266 -34.730537 123.420670 171 172 173
-61.723988 -34.728783 123.418121 173 176 177
-61.723785 -34.728470 123.417717 81 84 85
-61.723785 -34.728470 123.417717 81 84 85
-61.725464 -34.730751 123.421089 189 190 193
-61.725464 -34.730751 123.421089 189 190 193
-61.724915 -34.730110 123.419998 91 92 93
-61.724960 -34.730530 123.420082 155 158 161
-61.723530 -34.727703 123.417236 91 92 93
-61.723358 -34.727585 123.416901 188 190 189
-61.725132 -34.730667 123.420464 170 173 174
-61.723419 -34.727509 123.417046 189 190 193
-61.723259 -34.727390 123.416725 91 92 95
-61.723736 -34.728439 123.417686 77 80 81
-61.724586 -34.729485 123.419395 175 176 177
-61.724586 -34.729485 123.419395 175 176 177
-61.725121 -34.730301 123.420464 174 175 176
-61.725121 -34.730301 123.420464 174 175 176
-61.723118 -34.727291 123.416481 166 167 170
-61.723763 -34.727795 123.417770 168 169 170
-61.724422 -34.729340 123.419121 93 94 95
-61.724422 -34.729340 123.419121 93 94 95
-61.724411 -34.729179 123.419106 182 183 184
-61.724976 -34.730656 123.420235 101 104 105
-61.726273 -34.732285 123.422821 148 151 154
-61.723869 -34.728458 123.418022 85 86 87
-61.722790 -34.725872 123.415878 103 106 107
-61.724758 -34.730183 123.419807 82 83 84
-61.726616 -34.732914 123.423523 150 153 156
-61.724167 -34.729282 123.418625 157 158 159
-61.723633 -34.727062 123.417587 99 102 105
-61.724506 -34.729702 123.419365 86 87 90
-61.723728 -34.727901 123.417801 79 80 81
-61.726032 -34.732544 123.422424 140 143 146
-61.722095 -34.725445 123.414558 94 97 100
-61.725201 -34.730663 123.420769 97 100 103
-61.722218 -34.725700 123.414803 186 189 190
-61.726067 -34.732727 123.422493 146 149 150
-61.726067 -34.732727 123.422493 146 149 150
-61.723995 -34.728287 123.418365 85 86 87
-61.723503 -34.727924 123.417374 167 168 169
-61.722279 -34.725777 123.414940 92 95 96
-61.721825 -34.724842 123.414040 136 141 144
-61.725319 -34.730999 123.421021 100 101 102
-61.725319 -34.730999 123.421021 100 101 102
-61.723049 -34.726933 123.416489 92 95 96
-61.722740 -34.726788 123.415871 169 172 173
-61.723190 -34.727379 123.416786 95 96 97
-61.723206 -34.727291 123.416801 156 159 160
-61.723206 -34.727291 123.416801 156 159 160
-61.722874 -34.726353 123.416145 156 157 158
-61.722946 -34.726608 123.416298 98 99 100
-61.724400 -34.728996 123.419205 98 99 100
-61.724812 -34.730179 123.420029 165 166 167
-61.724812 -34.730179 123.420029 165 166 167
-61.724228 -34.728493 123.418861 164 165 166
-61.724377 -34.729122 123.419174 89 90 91
-61.726212 -34.732677 123.422844 91 94 97
-61.722530 -34.725826 123.415482 145 148 149
-61.725513 -34.731495 123.421455 151 152 153
-61.726070 -34.732639 123.422569 138 141 142
-61.726559 -34.733204 123.423561 146 149 150
-61.724468 -34.729698 123.419395 69 70 71
-61.722469 -34.725353 123.415398 135 140 143
-61.724197 -34.728802 123.418861 182 185 186
-61.724197 -34.728802 123.418861 182 185 186
-61.723309 -34.727474 123.417084 146 147 148
-61.722736 -34.726574 123.415939 157 158 159
-61.726231 -34.732685 123.422920 176 179 182
-61.726231 -34.732685 123.422920 176 179 182
-61.723701 -34.728123 123.417885 75 76 77
-61.724483 -34.729443 123.419449 86 87 88
-61.724613 -34.729591 123.419708 167 168 169
-61.724613 -34.729591 123.419708 167 168 169
-61.723530 -34.727547 123.417549 93 94 95
-61.722591 -34.726234 123.415703 112 113 114
-61.725224 -34.730686 123.420952 163 164 165
-61.725430 -34.731079 123.421371 79 82 83
-61.726387 -34.732784 123.423309 83 86 87
-61.725277 -34.731026 123.421074 154 155 156
-61.723675 -34.728352 123.417892 84 87 88
-61.725101 -34.730694 123.420746 171 172 173
-61.724308 -34.729794 123.419167 99 100 101
-61.725487 -34.731216 123.421524 151 152 153
-61.725658 -34.732040 123.421875 86 90 89
-61.723072 -34.727192 123.416710 180 183 184
-61.723068 -34.727047 123.416710 99 102 105
-61.723988 -34.728275 123.418564 71 72 73
-61.723988 -34.728275 123.418564 71 72 73
-61.723217 -34.726891 123.417023 163 164 165
-61.723331 -34.727303 123.417259 158 161 162
-61.725750 -34.732773 123.422127 84 85 86
-61.725998 -34.732082 123.422623 149 151 150
-61.725998 -34.732082 123.422623 149 151 150
-61.723492 -34.728500 123.417618 83 84 85
-61.725811 -34.732330 123.422256 100 103 104
-61.724194 -34.729034 123.419044 97 100 103
-61.723484 -34.727966 123.417625 86 87 88
-61.723709 -34.727757 123.418068 164 167 168
-61.724598 -34.730007 123.419853 90 91 92
-61.722797 -34.726765 123.416267 98 99 100
-61.724174 -34.729183 123.419014 87 88 89
-61.724903 -34.730343 123.420479 81 82 83
-61.725655 -34.732014 123.421989 98 101 102
-61.725170 -34.731010 123.421028 91 92 93
-61.724960 -34.730362 123.420616 159 160 161
-61.724960 -34.730362 123.420616 159 160 161
-61.723743 -34.728073 123.418190 95 96 97
-61.723797 -34.728168 123.418304 164 165 166
-61.722393 -34.726505 123.415504 91 92 93
-61.724613 -34.730820 123.419975 148 149 150
-61.724613 -34.730820 123.419975 148 149 150
-61.724968 -34.731041 123.420685 83 84 85
-61.724522 -34.729671 123.419792 76 77 78
-61.724522 -34.729671 123.419792 76 77 78
-61.724438 -34.729733 123.419617 103 106 107
-61.724087 -34.728569 123.418922 99 100 101
-61.722908 -34.727482 123.416588 97 100 101
-61.723328 -34.727768 123.417427 95 98 99
-61.725471 -34.731529 123.421730 156 157 158
-61.725071 -34.730911 123.420937 160 161 162
-61.725071 -34.730911 123.420937 160 161 162
-61.723370 -34.728161 123.417542 181 182 183
-61.723911 -34.728439 123.418640 79 80 81
-61.724216 -34.728947 123.419243 163 166 167
-61.726036 -34.732365 123.422913 108 111 112
-61.725315 -34.731491 123.421471 171 172 173
-61.724903 -34.731037 123.420654 104 105 106
-61.721874 -34.725208 123.414597 141 144 147
-61.722046 -34.725590 123.414940 153 154 155
-61.724419 -34.729301 123.419701 86 87 88
-61.723320 -34.727608 123.417503 96 97 98
-61.722607 -34.726841 123.416084 145 148 151
-61.722607 -34.726841 123.416084 145 148 151
-61.723610 -34.728657 123.418098 98 99 100
-61.724277 -34.729385 123.419426 93 94 95
-61.723484 -34.727791 123.417847 87 88 89
-61.726475 -34.733383 123.423828 161 164 167
-61.725948 -34.732231 123.422791 92 95 98
-61.725082 -34.731079 123.421059 100 103 104
-61.722862 -34.726883 123.416634 162 165 166
-61.722488 -34.726326 123.415894 177 178 179
-61.723576 -34.728287 123.418076 171 172 173
-61.725800 -34.732212 123.422508 96 99 100
-61.722672 -34.726555 123.416283 101 102 103
-61.725433 -34.732147 123.421806 87 88 89
-61.722889 -34.727055 123.416733 164 167 170
-61.723930 -34.728813 123.418808 161 164 165
-61.723930 -34.728813 123.418808 161 164 165
-61.723637 -34.728409 123.418221 103 104 105
-61.722382 -34.726135 123.415726 151 154 157
-61.725315 -34.731792 123.421600 163 164 165
-61.722473 -34.726337 123.415932 85 86 87
-61.725571 -34.731144 123.422134 178 179 180
-61.724560 -34.729866 123.420120 162 161 165
-61.722275 -34.726139 123.415581 162 165 168
-61.724949 -34.730427 123.420937 145 146 147
-61.724293 -34.729912 123.419617 85 86 87
-61.725529 -34.731640 123.422119 82 85 86
-61.725117 -34.730858 123.421303 154 157 158
-61.723732 -34.728741 123.418533 180 183 184
-61.724831 -34.730827 123.420738 98 101 102
-61.724548 -34.729610 123.420174 101 102 103
-61.723995 -34.729397 123.419067 98 101 102
-61.725349 -34.731659 123.421791 146 149 150
-61.722939 -34.726807 123.416962 99 100 101
-61.725090 -34.730892 123.421272 173 176 177
-61.722332 -34.725830 123.415756 148 151 152
-61.724907 -34.730350 123.420906 82 83 84
-61.723022 -34.727741 123.417145 96 99 100
-61.725014 -34.730679 123.421135 177 178 179
-61.725014 -34.730679 123.421135 177 178 179
-61.723461 -34.728199 123.418037 74 75 76
-61.724022 -34.729057 123.419159 175 176 177
-61.724003 -34.728561 123.419121 82 83 84
-61.722878 -34.727722 123.416878 91 92 93
-61.723289 -34.727734 123.417717 64 67 68
-61.722401 -34.725838 123.415939 140 143 144
-61.722401 -34.725838 123.415939 140 143 144
-61.723629 -34.728279 123.418396 176 179 180
-61.725677 -34.732132 123.422493 97 98 99
-61.726051 -34.732433 123.423248 155 156 159
-61.725166 -34.731300 123.421486 98 99 100
-61.724213 -34.729965 123.419579 168 169 170
-61.723911 -34.729031 123.419006 84 85 86
-61.726337 -34.732994 123.423851 146 149 150
-61.725536 -34.731316 123.422256 97 98 99
-61.726086 -34.732670 123.423355 92 95 96
-61.722931 -34.727402 123.417061 100 101 104
-61.725662 -34.732204 123.422523 104 105 108
-61.725662 -34.732204 123.422523 104 105 108
-61.725090 -34.731228 123.421379 92 93 94
-61.724766 -34.730373 123.420738 89 92 93
-61.725101 -34.731579 123.421417 82 85 86
-61.722599 -34.726887 123.416435 104 107 108
-61.725101 -34.730453 123.421432 73 74 75
-61.724609 -34.730221 123.420448 83 84 85
-61.722775 -34.727016 123.416801 167 170 171
-61.723389 -34.728008 123.418030 102 103 104
-61.725498 -34.731544 123.422241 93 96 97
-61.724415 -34.729568 123.420090 89 92 93
-61.723076 -34.727493 123.417419 164 165 168
-61.722435 -34.726471 123.416122 155 158 161
-61.725857 -34.732635 123.422989 136 139 142
-61.722305 -34.726830 123.415901 88 91 92
-61.722141 -34.725822 123.415573 169 170 171
-61.724007 -34.729019 123.419312 101 103 102
-61.724304 -34.729160 123.419899 177 178 179
-61.725571 -34.731476 123.422432 171 174 175
-61.723877 -34.728817 123.419052 68 69 70
-61.723362 -34.728149 123.418037 161 162 163
-61.724369 -34.730019 123.420044 96 97 98
-61.725014 -34.730545 123.421341 89 92 93
-61.722084 -34.725773 123.415482 95 96 97
-61.723896 -34.728607 123.419113 81 84 87
-61.721966 -34.725639 123.415260 97 102 105
-61.722397 -34.726322 123.416138 171 174 177
-61.722397 -34.726322 123.416138 171 174 177
-61.726280 -34.732872 123.423897 75 78 81
-61.723743 -34.728741 123.418831 216 217 218
-61.725140 -34.731239 123.421638 81 84 87
-61.723854 -34.729004 123.419075 179 180 181
-61.724087 -34.729572 123.419563 86 91 92
-61.723736 -34.728294 123.418861 94 95 96
-61.721867 -34.725430 123.415123 157 160 161
-61.721867 -34.725430 123.415123 157 160 161
-61.722485 -34.726570 123.416382 184 187 188
-61.723732 -34.728928 123.418861 104 105 106
-61.722988 -34.727776 123.417389 93 94 95
-61.725727 -34.732113 123.422859 92 93 94
-61.723503 -34.728046 123.418427 164 167 168
-61.724056 -34.729576 123.419525 146 151 152
-61.722744 -34.727406 123.416916 146 149 152
-61.723408 -34.728439 123.418251 138 141 144
-61.724758 -34.730484 123.420944 155 158 159
-61.723503 -34.728024 123.418449 100 103 104
-61.722507 -34.726864 123.416458 87 90 91
-61.723072 -34.727375 123.417587 98 101 102
-61.722584 -34.726940 123.416626 152 155 156
-61.725845 -34.732628 123.423164 162 165 166
-61.725082 -34.731552 123.421646 159 160 161
-61.724106 -34.729683 123.419693 97 98 99
-61.724594 -34.730602 123.420677 89 92 93
-61.724049 -34.729122 123.419579 173 174 175
-61.723656 -34.728828 123.418816 79 80 81
-61.724323 -34.729908 123.420158 167 168 169
-61.725258 -34.731609 123.422028 136 137 138
-61.725258 -34.731609 123.422028 136 137 138
-61.722713 -34.727161 123.416946 93 94 95
-61.723911 -34.729477 123.419334 87 90 91
-61.725040 -34.730930 123.421600 155 158 159
-61.722061 -34.725819 123.415657 111 112 115
-61.723125 -34.727581 123.417786 96 97 98
-61.722603 -34.726776 123.416748 83 86 87
-61.721569 -34.725296 123.414688 172 177 178
-61.724831 -34.730846 123.421204 92 95 96
-61.724464 -34.730019 123.420464 83 84 85
-61.721973 -34.726063 123.415504 166 169 172
-61.722637 -34.727020 123.416832 163 166 167
-61.722637 -34.727020 123.416832 163 166 167
-61.721638 -34.725315 123.414848 92 97 98
-61.722687 -34.726822 123.416954 163 166 167
-61.724102 -34.729492 123.419792 219 222 225
-61.724102 -34.729492 123.419792 219 222 225
-61.726051 -34.732086 123.423683 99 100 101
-61.721985 -34.725883 123.415558 159 162 163
-61.724545 -34.730148 123.420677 185 186 187
-61.725613 -34.732365 123.422813 182 185 186
-61.725613 -34.732365 123.422813 182 185 186
-61.724174 -34.730019 123.419945 73 74 75
-61.723824 -34.728851 123.419235 186 189 190
-61.723289 -34.727974 123.418190 74 75 76
-61.725365 -34.731800 123.422348 176 179 180
-61.726013 -34.732529 123.423645 153 154 157
-61.723698 -34.728767 123.419037 83 86 87
-61.722549 -34.726818 123.416763 172 175 176
-61.722797 -34.727585 123.417252 159 162 163
-61.724419 -34.730156 123.420517 94 95 96
-61.723770 -34.728470 123.419250 148 151 154
-61.723385 -34.728462 123.418488 147 150 153
-61.722847 -34.727211 123.417427 163 166 169
-61.725368 -34.732094 123.422470 149 150 151
-61.722675 -34.727371 123.417084 172 175 176
-61.727863 -34.735962 123.427467 131 137 136
-61.726044 -34.732788 123.423820 101 104 105
-61.722092 -34.726109 123.415939 175 178 179
-61.722557 -34.727123 123.416870 189 190 191
-61.723774 -34.729088 123.419296 84 85 86
-61.722527 -34.726620 123.416809 154 157 158
-61.725323 -34.731258 123.422409 67 70 71
-61.722057 -34.726002 123.415878 93 96 99
-61.723286 -34.728233 123.418343 100 101 104
-61.722733 -34.727196 123.417236 103 104 107
-61.724979 -34.730934 123.421738 96 97 98
-61.722427 -34.726513 123.416634 99 100 101
-61.725224 -34.731731 123.422249 84 87 88
-61.721909 -34.725899 123.415627 157 160 163
-61.723766 -34.728546 123.419342 157 158 159
-61.724380 -34.730110 123.420586 95 98 99
-61.725616 -34.732368 123.423058 148 149 152
-61.722153 -34.726097 123.416153 112 115 118
-61.722290 -34.725819 123.416435 153 158 161
-61.725357 -34.732212 123.422577 102 105 106
-61.724331 -34.729748 123.420547 199 200 203
-61.723759 -34.729095 123.419418 100 103 104
-61.723728 -34.728771 123.419357 91 94 95
-61.723392 -34.728321 123.418694 169 170 171
-61.723549 -34.728802 123.419022 184 185 186
-61.722416 -34.726273 123.416763 158 161 164
-61.723133 -34.728001 123.418190 170 173 174
-61.722878 -34.727402 123.417686 83 86 87
-61.723797 -34.729176 123.419533 98 100 99
-61.724442 -34.729767 123.420822 159 160 161
-61.723373 -34.728439 123.418686 156 157 158
-61.722519 -34.727242 123.416992 147 150 151
-61.722519 -34.727242 123.416992 147 150 151
-61.724888 -34.731472 123.421730 78 81 84
-61.725513 -34.732151 123.422989 155 156 157
-61.725323 -34.731903 123.422623 92 93 94
-61.724476 -34.730091 123.420937 86 89 90
-61.723995 -34.729515 123.419991 77 78 79
-61.723106 -34.728153 123.418205 165 168 169
-61.724686 -34.730274 123.421371 67 68 69
-61.724686 -34.730274 123.421371 67 68 69
-61.724331 -34.729839 123.420662 145 146 147
-61.724346 -34.730053 123.420692 171 174 175
-61.723278 -34.728172 123.418556 92 95 96
-61.723747 -34.729328 123.419525 76 77 78
-61.723747 -34.729328 123.419525 76 77 78
-61.723244 -34.728558 123.418518 166 169 172
-61.723537 -34.728752 123.419106 77 80 81
-61.722237 -34.726974 123.416504 94 97 98
-61.725121 -34.731819 123.422272 151 152 153
-61.724312 -34.730137 123.420670 89 90 91
-61.724003 -34.729530 123.420052 77 80 83
-61.724003 -34.729530 123.420052 77 80 83
-61.721588 -34.725262 123.415222 142 145 148
-61.723450 -34.728653 123.418938 82 83 86
-61.723366 -34.728519 123.418785 201 202 203
-61.722240 -34.726711 123.416534 94 97 98
-61.723724 -34.729225 123.419502 149 151 150
-61.725414 -34.731564 123.422874 89 92 95
-61.725140 -34.731472 123.422340 152 155 156
-61.725708 -34.732635 123.423477 103 106 107
-61.725353 -34.732090 123.422768 92 93 96
-61.725780 -34.732887 123.423630 147 150 151
-61.724041 -34.729931 123.420151 166 167 168
-61.725811 -34.733124 123.423691 83 86 87
-61.721066 -34.724709 123.414207 95 100 101
-61.724953 -34.731163 123.421989 87 90 91
-61.724754 -34.730904 123.421585 74 75 76
-61.725418 -34.732018 123.422920 97 98 99
-61.723419 -34.727600 123.418945 135 138 139
-61.722721 -34.727562 123.417557 145 146 147
-61.723240 -34.728359 123.418579 157 160 163
-61.725105 -34.731491 123.422318 91 94 97
-61.725105 -34.731491 123.422318 91 94 97
-61.725235 -34.732033 123.422585 174 175 178
-61.725468 -34.732285 123.423050 83 82 86
-61.724194 -34.730339 123.420517 161 164 165
-61.724979 -34.731514 123.422081 151 154 155
-61.724979 -34.731514 123.422081 151 154 155
-61.722580 -34.726688 123.417290 138 141 144
-61.722580 -34.726688 123.417290 138 141 144
-61.724934 -34.731709 123.422005 90 91 92
-61.725197 -34.731888 123.422523 170 171 172
-61.725559 -34.732319 123.423264 161 162 165
-61.724537 -34.730564 123.421219 80 83 84
-61.722847 -34.727966 123.417847 169 172 173
-61.724617 -34.730537 123.421387 140 139 141
-61.726204 -34.733173 123.424561 138 139 140
-61.723618 -34.728870 123.419395 148 151 152
-61.721119 -34.724773 123.414421 185 188 191
-61.725185 -34.731758 123.422531 86 89 90
-61.724297 -34.729836 123.420769 82 83 86
-61.722797 -34.727310 123.417763 162 165 166
-61.724472 -34.730320 123.421127 166 167 168
-61.724709 -34.730865 123.421585 79 82 83
-61.722157 -34.726269 123.416504 140 143 144
-61.723961 -34.729301 123.420105 80 83 84
-61.725151 -34.731968 123.422493 160 163 164
-61.722469 -34.726814 123.417130 84 85 86
-61.722130 -34.726456 123.416458 92 95 96
-61.723392 -34.728626 123.418976 88 89 90
-61.722179 -34.726528 123.416565 92 95 98
-61.721989 -34.726143 123.416183 96 99 100
-61.722504 -34.727322 123.417213 164 167 168
-61.722713 -34.727680 123.417641 168 169 170
-61.722462 -34.726768 123.417145 93 94 97
-61.725952 -34.733070 123.424126 142 145 146
-61.725433 -34.731720 123.423088 87 90 91
-61.722912 -34.727875 123.418053 87 88 89
-61.722912 -34.727875 123.418053 87 88 89
-61.722385 -34.726654 123.417030 158 161 164
-61.722385 -34.726654 123.417030 158 161 164
