ply
format ascii 1.0
element vertex 1042
property float x
property float y
property float z
property uchar red
property uchar green
property uchar blue
end_header
-201.460602 -113.755119 403.190308 84 88 93
-201.461060 -113.755264 403.191254 108 112 117
-201.455048 -113.746460 403.179230 103 125 139
-201.456314 -113.749527 403.181763 115 125 132
-201.455948 -113.747894 403.181030 24 40 51
-201.457764 -113.748245 403.184692 3 24 40
-201.454788 -113.749062 403.178741 98 112 119
-201.462067 -113.753479 403.193390 93 106 115
-201.454605 -113.746452 403.178436 21 34 43
-201.461594 -113.755646 403.192505 151 154 162
-201.460632 -113.757378 403.190582 123 127 132
-201.462204 -113.754395 403.193726 24 38 44
-201.463898 -113.760490 403.197174 167 178 187
-201.464493 -113.758316 403.198425 99 105 112
-201.454636 -113.747902 403.178680 32 36 41
-201.443817 -113.726501 403.157043 48 63 78
-201.458328 -113.753860 403.186157 81 84 92
-201.463058 -113.759567 403.195648 117 124 128
-201.463058 -113.759567 403.195648 117 124 128
-201.458939 -113.754814 403.187408 76 83 87
-201.461960 -113.759445 403.193451 142 146 151
-201.459442 -113.752144 403.188416 12 32 37
-201.464508 -113.761253 403.198639 150 157 167
-201.450302 -113.742706 403.170197 32 35 38
-201.458832 -113.752419 403.187286 25 30 31
-201.439713 -113.723824 403.149017 163 162 164
-201.461014 -113.755951 403.191711 125 132 136
-201.461746 -113.759430 403.193207 193 199 206
-201.462540 -113.759979 403.194824 195 206 209
-201.458694 -113.753174 403.187164 33 41 49
-201.463852 -113.760132 403.197479 188 194 202
-201.459183 -113.755264 403.188110 76 86 88
-201.437668 -113.718323 403.145050 39 60 78
-201.463654 -113.760757 403.197144 198 206 213
-201.463654 -113.760757 403.197144 198 206 213
-201.460510 -113.757118 403.190887 156 160 165
-201.465088 -113.761307 403.200134 174 182 190
-201.465088 -113.761307 403.200134 174 182 190
-201.463272 -113.760635 403.196564 149 155 162
-201.460709 -113.758217 403.191467 130 140 146
-201.463547 -113.760727 403.197235 186 192 199
-201.463089 -113.759781 403.196320 170 180 187
-201.459854 -113.757019 403.189911 72 81 85
-201.464081 -113.762306 403.198395 140 147 157
-201.461700 -113.759552 403.193726 89 93 98
-201.439606 -113.721970 403.149475 184 188 193
-201.463409 -113.760788 403.197235 135 141 149
-201.463409 -113.760788 403.197235 135 141 149
-201.463211 -113.761581 403.196930 157 163 171
-201.460098 -113.756813 403.190704 89 97 104
-201.463333 -113.760391 403.197205 173 180 184
-201.463501 -113.760597 403.197632 182 186 191
-201.439758 -113.723419 403.150024 219 221 226
-201.439758 -113.723419 403.150024 219 221 226
-201.439697 -113.723381 403.149902 219 221 226
-201.440079 -113.722450 403.150757 229 237 239
-201.458862 -113.755241 403.188416 36 45 49
-201.461609 -113.757011 403.193909 106 116 122
-201.463516 -113.762314 403.197723 191 199 207
-201.461731 -113.759163 403.194214 152 156 161
-201.461731 -113.759163 403.194214 152 156 161
-201.461731 -113.759163 403.194214 152 156 161
-201.465332 -113.761734 403.201447 87 93 100
-201.462006 -113.759254 403.194824 94 101 105
-201.460037 -113.756683 403.190918 53 63 70
-201.462097 -113.759148 403.195038 149 154 157
-201.466629 -113.760498 403.204102 112 122 128
-201.461334 -113.756577 403.193512 92 102 108
-201.463531 -113.761299 403.197937 175 181 188
-201.463623 -113.761513 403.198151 117 124 128
-201.461945 -113.758835 403.194763 78 85 89
-201.434937 -113.718407 403.140625 146 158 165
-201.464172 -113.760818 403.199219 157 163 170
-201.464447 -113.763214 403.199799 178 188 195
-201.462296 -113.761543 403.195526 185 194 203
-201.462418 -113.758896 403.195770 78 82 87
-201.462418 -113.758896 403.195770 78 82 87
-201.463791 -113.759293 403.198517 65 77 83
-201.462891 -113.760811 403.196716 108 116 123
-201.462021 -113.758087 403.194977 115 125 132
-201.442184 -113.726151 403.155243 203 206 214
-201.459198 -113.756790 403.189392 119 130 139
-201.462204 -113.759926 403.195404 154 158 163
-201.461472 -113.760414 403.194000 180 183 191
-201.438141 -113.725365 403.147308 164 177 194
-201.435577 -113.718521 403.142151 39 60 78
-201.464828 -113.760216 403.200806 130 136 143
-201.465469 -113.762604 403.202087 107 111 116
-201.466263 -113.763290 403.203674 179 187 195
-201.466263 -113.763290 403.203674 179 187 195
-201.460922 -113.758522 403.192993 89 97 104
-201.462418 -113.761215 403.195984 130 140 147
-201.466461 -113.762527 403.204102 130 134 139
-201.456879 -113.751266 403.184906 114 117 118
-201.462921 -113.758545 403.196991 29 39 45
-201.439026 -113.722862 403.149170 189 193 198
-201.466644 -113.764519 403.204529 153 163 170
-201.465240 -113.762589 403.201721 162 168 175
-201.461792 -113.758301 403.194885 100 106 113
-201.442230 -113.727005 403.155731 203 201 201
-201.463745 -113.761749 403.198883 81 87 94
-201.461960 -113.760170 403.195312 151 154 162
-201.444580 -113.728210 403.160553 223 225 230
-201.440918 -113.725677 403.153351 224 230 237
-201.440796 -113.722328 403.153076 149 162 171
-201.439301 -113.722984 403.150177 235 237 242
-201.440094 -113.724678 403.151917 207 217 224
-201.465469 -113.760590 403.202850 25 29 34
-201.443207 -113.732277 403.158264 206 213 223
-201.464661 -113.763489 403.201447 107 111 116
-201.463669 -113.762665 403.199524 129 137 144
-201.440033 -113.724541 403.152191 237 241 246
-201.440033 -113.724541 403.152191 237 241 246
-201.437225 -113.725060 403.146606 31 32 30
-201.443176 -113.727882 403.158508 232 236 241
-201.439301 -113.721909 403.150757 50 75 96
-201.438141 -113.722961 403.148651 217 221 226
-201.438705 -113.722992 403.149872 215 216 224
-201.443573 -113.728676 403.159698 20 21 22
-201.438385 -113.721725 403.149353 15 40 61
-201.450745 -113.751923 403.174286 41 43 42
-201.440506 -113.723434 403.153778 163 178 191
-201.438049 -113.722092 403.149170 19 45 64
-201.440201 -113.725601 403.153961 230 236 244
-201.440201 -113.725601 403.153961 230 236 244
-201.447433 -113.738846 403.168610 60 58 58
-201.448639 -113.741753 403.171051 59 59 59
-201.448639 -113.741753 403.171051 59 59 59
-201.440903 -113.726593 403.155945 230 236 243
-201.440903 -113.726593 403.155945 230 236 243
-201.438110 -113.723579 403.150421 170 195 210
-201.438858 -113.726234 403.152039 40 41 42
-201.436661 -113.722786 403.147705 41 66 92
-201.450104 -113.739395 403.174652 31 30 28
-201.441116 -113.725624 403.156677 210 230 242
-201.439636 -113.726654 403.153778 34 34 34
-201.440323 -113.726952 403.155151 223 224 225
-201.439423 -113.724823 403.153503 186 212 225
-201.442108 -113.728966 403.159119 85 80 82
-201.441162 -113.726822 403.157257 242 251 255
-201.446960 -113.738495 403.169037 73 71 71
-201.440689 -113.726730 403.156464 207 208 216
-201.440689 -113.726730 403.156464 207 208 216
-201.438538 -113.724716 403.152374 10 39 62
-201.442932 -113.728714 403.161285 41 39 39
-201.448822 -113.739250 403.173370 69 68 70
-201.441315 -113.727852 403.158325 70 69 67
-201.441254 -113.732185 403.158234 180 195 208
-201.449249 -113.742950 403.174347 78 77 75
-201.451416 -113.740555 403.178711 76 74 74
-201.446182 -113.737701 403.168274 28 26 26
-201.438568 -113.726181 403.153046 36 35 39
-201.447861 -113.739510 403.171967 71 72 70
-201.447861 -113.739510 403.171967 71 72 70
-201.444016 -113.733109 403.164307 24 23 25
-201.444458 -113.738335 403.165863 83 80 82
-201.441055 -113.727539 403.159271 77 75 75
-201.443680 -113.732300 403.164703 24 22 22
-201.443604 -113.735779 403.164612 26 24 24
-201.444382 -113.736305 403.166290 85 83 83
-201.446671 -113.739464 403.170898 72 70 70
-201.448730 -113.738853 403.175079 34 30 30
-201.447922 -113.738724 403.173492 31 29 29
-201.438675 -113.730042 403.155090 21 18 20
-201.445374 -113.740677 403.168823 73 71 71
-201.439758 -113.729858 403.157562 75 72 70
-201.449356 -113.741028 403.176941 78 78 78
-201.449356 -113.741028 403.176941 78 78 78
-201.443542 -113.735115 403.165558 78 73 75
-201.442154 -113.736519 403.162872 82 80 80
-201.436935 -113.728180 403.152679 30 27 29
-201.439438 -113.730843 403.157898 70 69 71
-201.445724 -113.741028 403.170654 79 74 76
-201.442764 -113.734398 403.164703 24 21 23
-201.445999 -113.734558 403.171417 69 68 70
-201.445236 -113.737808 403.169983 31 28 30
-201.445236 -113.737808 403.169983 31 28 30
-201.439148 -113.727951 403.157776 86 83 85
-201.446198 -113.739822 403.171906 28 26 26
-201.442291 -113.735992 403.164062 23 23 23
-201.436630 -113.729652 403.152802 20 17 19
-201.441940 -113.732887 403.163452 84 81 83
-201.439850 -113.727989 403.159515 80 77 79
-201.447006 -113.737740 403.173920 75 73 73
-201.439636 -113.733192 403.159760 76 73 75
-201.438309 -113.730064 403.157196 166 158 161
-201.438309 -113.730064 403.157196 166 158 161
-201.434769 -113.728210 403.150238 44 40 40
-201.446655 -113.738235 403.174316 32 27 29
-201.439606 -113.732132 403.160248 111 109 109
-201.438599 -113.730400 403.158356 31 28 30
-201.444916 -113.736893 403.171204 94 90 90
-201.443878 -113.736252 403.169250 37 35 35
-201.441833 -113.733589 403.165222 96 93 95
-201.445816 -113.738121 403.173492 25 22 24
-201.445816 -113.740715 403.173523 101 100 98
-201.443222 -113.735001 403.168640 22 19 17
-201.442780 -113.735786 403.167877 90 87 89
-201.442780 -113.735786 403.167877 90 87 89
-201.437775 -113.727707 403.157990 79 75 75
-201.445541 -113.740784 403.173920 74 72 72
-201.441544 -113.735527 403.165924 81 76 78
-201.445892 -113.740532 403.174744 85 80 82
-201.433411 -113.727417 403.149780 77 75 75
-201.435852 -113.731926 403.154694 22 19 21
-201.435852 -113.731926 403.154694 22 19 21
-201.441757 -113.735359 403.166565 84 81 83
-201.444977 -113.739357 403.173462 23 21 21
-201.444977 -113.739357 403.173462 23 21 21
-201.440292 -113.732239 403.164093 71 64 65
-201.438690 -113.729370 403.160950 21 18 20
-201.443756 -113.739998 403.171387 80 77 79
-201.435226 -113.725983 403.155121 74 71 73
-201.444366 -113.735916 403.173676 30 25 27
-201.444366 -113.735916 403.173676 30 25 27
-201.435257 -113.727982 403.155548 76 76 76
-201.439087 -113.733009 403.163269 86 78 81
-201.439087 -113.733009 403.163269 86 78 81
-201.437759 -113.731613 403.160828 80 78 78
-201.446335 -113.745537 403.178162 83 81 81
-201.440079 -113.736221 403.165985 83 81 81
-201.440659 -113.731308 403.167267 27 25 25
-201.437042 -113.729355 403.160034 79 76 78
-201.437424 -113.728775 403.160828 36 33 35
-201.446777 -113.746803 403.179901 108 100 103
-201.439453 -113.732903 403.165314 63 61 61
-201.441910 -113.741714 403.170868 77 75 75
-201.441284 -113.738480 403.169800 86 85 87
-201.441986 -113.741753 403.171234 26 23 25
-201.437698 -113.731628 403.162659 74 69 71
-201.431076 -113.726006 403.150330 29 29 29
-201.437210 -113.732765 403.162994 74 71 73
-201.440689 -113.737274 403.170105 72 69 71
-201.442566 -113.742203 403.174652 77 74 76
-201.442764 -113.740730 403.175079 23 23 23
-201.439148 -113.738426 403.167938 86 84 84
-201.438614 -113.734985 403.167175 79 76 78
-201.442001 -113.739990 403.173981 37 35 35
-201.441055 -113.739395 403.172211 148 145 147
-201.441055 -113.739395 403.172211 148 145 147
-201.438507 -113.738045 403.167297 32 29 31
-201.438080 -113.736549 403.166992 97 95 95
-201.438660 -113.736977 403.168335 34 32 32
-201.438492 -113.738480 403.167999 30 27 29
-201.438309 -113.736580 403.167694 30 27 29
-201.441238 -113.739502 403.173645 28 25 27
-201.442749 -113.745140 403.176819 79 77 77
-201.441986 -113.737740 403.175629 34 31 33
-201.435547 -113.733101 403.162994 70 68 68
-201.436539 -113.735184 403.164978 26 21 23
-201.436813 -113.734001 403.165649 79 76 78
-201.436813 -113.734001 403.165649 79 76 78
-201.436661 -113.736031 403.165375 93 91 91
-201.436462 -113.734512 403.165131 84 82 82
-201.436462 -113.734512 403.165131 84 82 82
-201.437180 -113.738594 403.167175 87 82 86
-201.437836 -113.734901 403.168579 80 77 79
-201.439423 -113.736061 403.171814 75 72 74
-201.435211 -113.732841 403.164093 24 19 21
-201.433731 -113.732101 403.161194 96 91 93
-201.435013 -113.730675 403.163940 76 74 74
-201.427048 -113.727592 403.148132 90 90 90
-201.439316 -113.739998 403.173370 28 26 26
-201.431610 -113.730164 403.158356 84 83 85
-201.431610 -113.730164 403.158356 84 83 85
-201.433105 -113.735649 403.162018 28 23 25
-201.436829 -113.734123 403.169708 75 73 73
-201.437775 -113.737320 403.171753 84 79 81
-201.437775 -113.737320 403.171753 84 79 81
-201.439285 -113.743011 403.174835 27 25 25
-201.436279 -113.738289 403.169403 71 67 67
-201.433121 -113.734924 403.163177 71 71 71
-201.433121 -113.734924 403.163177 71 71 71
-201.437744 -113.737846 403.172546 86 84 84
-201.430191 -113.730484 403.157562 73 70 72
-201.434570 -113.732834 403.167053 80 76 76
-201.442841 -113.745605 403.183655 83 79 79
-201.429398 -113.726974 403.157471 82 77 79
-201.433853 -113.735046 403.166412 26 22 22
-201.422943 -113.722603 403.144806 87 82 84
-201.433548 -113.736107 403.166779 68 65 67
-201.428925 -113.733604 403.157684 24 21 25
-201.434906 -113.739059 403.169678 78 76 76
-201.431046 -113.734451 403.162231 75 73 73
-201.424667 -113.726585 403.149536 25 23 23
-201.434525 -113.737892 403.169342 88 86 86
-201.427078 -113.727364 403.155029 23 20 22
-201.432968 -113.739342 403.167297 72 69 73
-201.432495 -113.739746 403.170288 89 84 86
-201.432495 -113.739746 403.170288 89 84 86
-201.430252 -113.736298 403.166077 77 75 75
-201.429642 -113.736298 403.165466 73 70 72
-201.427582 -113.733643 403.161926 83 75 78
-201.428238 -113.732170 403.163544 26 22 22
-201.425201 -113.732513 403.160431 67 64 66
-201.439255 -113.746094 403.188721 75 71 71
-201.439255 -113.746094 403.188721 75 71 71
-201.425339 -113.732483 403.160828 73 71 71
-201.430481 -113.738686 403.171265 68 66 66
-201.430481 -113.738686 403.171265 68 66 66
-201.431320 -113.742416 403.173492 71 67 67
-201.431320 -113.742416 403.173492 71 67 67
-201.425720 -113.730072 403.162598 67 67 67
-201.429840 -113.741516 403.172577 67 65 65
-201.542740 -113.742409 403.189850 83 81 81
-201.540848 -113.739365 403.186676 78 76 76
-201.540848 -113.739365 403.186676 78 76 76
-201.538223 -113.736786 403.182739 84 84 84
-201.538849 -113.736099 403.184631 29 29 29
-201.536926 -113.733109 403.180878 74 72 72
-201.540237 -113.737465 403.187744 89 87 87
-201.536713 -113.732971 403.180908 67 67 67
-201.541077 -113.744919 403.192963 101 101 101
-201.536972 -113.739197 403.185181 34 31 33
-201.537277 -113.739304 403.185883 83 81 81
-201.541321 -113.739807 403.194031 76 74 74
-201.526291 -113.722633 403.164093 109 111 110
-201.537949 -113.742554 403.187927 67 64 66
-201.533020 -113.732986 403.178040 82 80 80
-201.528030 -113.727036 403.169861 73 71 71
-201.535492 -113.736465 403.185333 103 101 101
-201.534485 -113.739372 403.185150 94 90 90
-201.527039 -113.728561 403.171570 100 98 98
-201.527039 -113.728561 403.171570 100 98 98
-201.531723 -113.733879 403.181183 85 83 83
-201.525696 -113.727844 403.169403 73 72 70
-201.525497 -113.732315 403.171509 31 30 28
-201.528595 -113.733505 403.177795 84 81 83
-201.528717 -113.733063 403.178589 76 72 72
-201.530258 -113.737930 403.183899 71 69 69
-201.528549 -113.735008 403.180603 74 73 75
-201.528244 -113.737190 403.180206 76 76 76
-201.526611 -113.732277 403.177094 82 80 80
-201.526611 -113.732277 403.177094 82 80 80
-201.535965 -113.744743 403.196411 41 38 40
-201.528397 -113.736382 403.183685 32 28 28
-201.526077 -113.735153 403.179352 25 23 23
-201.525818 -113.736916 403.179016 83 80 82
-201.522079 -113.731323 403.171936 95 91 91
-201.533859 -113.747086 403.196320 94 92 92
-201.523483 -113.731453 403.176666 88 86 86
-201.523514 -113.734779 403.178009 86 83 85
-201.524261 -113.734886 403.180573 75 75 75
-201.523895 -113.736679 403.179901 35 33 33
-201.518539 -113.728806 403.169250 88 84 84
-201.529587 -113.744247 403.191620 29 28 30
-201.522705 -113.736298 403.178406 106 104 104
-201.524460 -113.737762 403.182617 34 31 33
-201.523605 -113.737289 403.181091 78 75 77
-201.523605 -113.737289 403.181091 78 75 77
-201.524155 -113.737564 403.182281 33 31 31
-201.523804 -113.737854 403.182251 33 32 34
-201.518234 -113.730560 403.171173 32 30 30
-201.527542 -113.742813 403.189911 75 72 74
-201.523544 -113.735565 403.182526 37 35 35
-201.524658 -113.740486 403.184875 66 66 66
-201.520782 -113.734962 403.177582 78 78 78
-201.516602 -113.728790 403.169312 80 78 78
-201.528519 -113.743446 403.193359 82 80 80
-201.522141 -113.737709 403.180817 82 80 80
-201.516129 -113.731636 403.168823 30 30 30
-201.520752 -113.736343 403.178253 100 100 100
-201.520752 -113.736343 403.178253 100 100 100
-201.523422 -113.738617 403.183838 74 73 75
-201.527328 -113.745117 403.191986 81 81 81
-201.522034 -113.735962 403.181549 78 78 78
-201.520401 -113.735283 403.178314 79 79 79
-201.518829 -113.732330 403.175293 38 38 38
-201.518829 -113.732330 403.175293 38 38 38
-201.526688 -113.745804 403.191467 83 81 81
-201.520447 -113.734627 403.179504 77 76 74
-201.516174 -113.730850 403.171082 83 80 82
-201.523575 -113.738785 403.186005 38 36 36
-201.516388 -113.730667 403.171722 98 98 98
-201.524918 -113.745316 403.188843 83 80 82
-201.517365 -113.731705 403.173737 85 85 85
-201.525681 -113.744263 403.190674 34 32 32
-201.519379 -113.732513 403.178162 80 78 78
-201.523132 -113.741753 403.185791 77 75 75
-201.519150 -113.734993 403.178040 76 75 77
-201.519150 -113.734993 403.178040 76 75 77
-201.521240 -113.737762 403.182709 78 76 76
-201.516342 -113.730904 403.173187 36 33 35
-201.522675 -113.740387 403.186005 74 74 74
-201.516342 -113.733154 403.173706 74 72 72
-201.518127 -113.733864 403.177704 28 25 27
-201.518127 -113.733864 403.177704 28 25 27
-201.517380 -113.733383 403.176422 34 32 32
-201.520828 -113.739975 403.183990 104 104 104
-201.519455 -113.737198 403.181274 83 81 81
-201.519089 -113.740837 403.180542 70 70 70
-201.520187 -113.738235 403.182831 94 94 94
-201.511429 -113.726433 403.165863 77 77 77
-201.509872 -113.726349 403.162964 79 77 77
-201.517670 -113.737770 403.178741 78 78 78
-201.519409 -113.739799 403.182648 72 70 70
-201.512909 -113.731300 403.169952 90 87 89
-201.514664 -113.731796 403.173584 87 87 87
-201.516922 -113.732979 403.178314 72 71 73
-201.516495 -113.737030 403.177490 77 77 77
-201.516495 -113.737030 403.177490 77 77 77
-201.517944 -113.736908 403.180573 87 84 86
-201.515076 -113.735168 403.175171 32 29 31
-201.518875 -113.738457 403.183228 81 80 82
-201.514481 -113.732506 403.174530 80 78 78
-201.515350 -113.734039 403.176300 80 78 78
-201.516785 -113.737137 403.179718 94 94 94
-201.517166 -113.738892 403.180542 74 71 73
-201.517166 -113.738892 403.180542 74 71 73
-201.518936 -113.738388 403.184204 40 42 41
-201.512497 -113.729492 403.171326 83 81 81
-201.515350 -113.735954 403.177826 26 24 24
-201.518341 -113.741249 403.183868 75 72 74
-201.513885 -113.735573 403.175049 75 73 73
-201.520676 -113.738899 403.188873 72 72 72
-201.517548 -113.738304 403.182709 84 82 82
-201.509979 -113.727379 403.168121 87 87 87
-201.512589 -113.734657 403.173462 34 32 32
-201.515091 -113.734810 403.178833 79 78 80
-201.512375 -113.730202 403.173767 88 85 87
-201.516876 -113.740685 403.183380 80 78 78
-201.505463 -113.725471 403.160767 93 93 93
-201.511078 -113.732445 403.172119 82 82 82
-201.512604 -113.733360 403.175446 33 33 33
-201.505356 -113.723755 403.161377 87 87 87
-201.508667 -113.727798 403.167969 33 33 33
-201.514069 -113.735390 403.178833 32 30 30
-201.508881 -113.729439 403.168793 99 97 97
-201.506927 -113.726967 403.164917 85 85 85
-201.512909 -113.733978 403.177155 90 87 89
-201.507446 -113.728523 403.166626 80 78 78
-201.513245 -113.738380 403.178253 92 92 92
-201.517319 -113.740524 403.186798 82 80 80
-201.516129 -113.740753 403.184784 92 90 90
-201.503906 -113.725075 403.160431 78 78 78
-201.516953 -113.739449 403.186707 37 37 37
-201.507889 -113.733299 403.168701 35 37 36
-201.521286 -113.752457 403.195709 135 152 160
-201.513718 -113.737610 403.180695 32 30 30
-201.513718 -113.737610 403.180695 32 30 30
-201.523666 -113.753624 403.200653 206 226 232
-201.522827 -113.753944 403.199219 37 36 38
-201.520950 -113.751877 403.195465 33 47 60
-201.521179 -113.752411 403.195953 150 153 161
-201.522888 -113.753708 403.199554 163 180 195
-201.522888 -113.753708 403.199554 163 180 195
-201.506699 -113.729485 403.167236 84 81 83
-201.508896 -113.731102 403.171692 77 75 75
-201.518341 -113.750229 403.190674 46 64 75
-201.520447 -113.752029 403.194916 205 214 223
-201.514725 -113.748917 403.183502 165 175 187
-201.522720 -113.753571 403.199554 163 177 190
-201.517334 -113.745094 403.188904 254 255 255
-201.506363 -113.728142 403.166931 90 88 88
-201.513184 -113.742393 403.180695 28 37 46
-201.515549 -113.743851 403.185425 160 182 198
-201.518356 -113.751358 403.191162 233 248 255
-201.521545 -113.752815 403.197601 144 153 167
-201.513824 -113.742821 403.182159 208 223 238
-201.508652 -113.730080 403.171783 93 93 93
-201.520599 -113.747253 403.195801 46 46 46
-201.516266 -113.744553 403.187103 209 215 222
-201.523773 -113.754578 403.202179 234 248 255
-201.522720 -113.753258 403.200104 213 224 238
-201.522720 -113.753258 403.200104 213 224 238
-201.521667 -113.753090 403.198029 224 235 249
-201.523239 -113.753777 403.201233 236 247 255
-201.506866 -113.727448 403.168396 80 78 78
-201.506226 -113.728775 403.167145 33 33 33
-201.517975 -113.749809 403.190674 44 59 70
-201.505539 -113.729836 403.165833 89 86 88
-201.520782 -113.751526 403.196350 216 237 247
-201.518143 -113.745705 403.191071 214 225 234
-201.503204 -113.728455 403.161163 35 32 34
-201.513824 -113.742714 403.182465 187 204 217
-201.517899 -113.750137 403.190613 127 139 146
-201.516968 -113.745033 403.188843 153 168 179
-201.519562 -113.751785 403.194061 157 172 183
-201.519836 -113.750916 403.194672 232 250 255
-201.512451 -113.742409 403.179932 152 169 182
-201.512451 -113.742409 403.179932 152 169 182
-201.525497 -113.755394 403.206024 179 193 206
-201.516235 -113.744026 403.187500 168 190 204
-201.522354 -113.753845 403.199829 240 246 254
-201.517166 -113.745338 403.189453 241 246 249
-201.521835 -113.752998 403.198883 221 235 248
-201.519165 -113.750465 403.193634 207 227 241
-201.516983 -113.745224 403.189270 248 252 255
-201.516983 -113.745224 403.189270 248 252 255
-201.522400 -113.753471 403.200165 148 162 175
-201.520721 -113.753014 403.196808 159 165 173
-201.520721 -113.753014 403.196808 159 165 173
-201.515015 -113.743080 403.185394 42 58 69
-201.521362 -113.754036 403.198273 138 141 144
-201.521500 -113.753464 403.198517 241 249 255
-201.515839 -113.743477 403.187225 30 46 57
-201.521805 -113.751976 403.199188 146 163 176
-201.524948 -113.755737 403.205505 161 173 185
-201.522476 -113.754501 403.200592 241 250 255
-201.523605 -113.753914 403.202850 210 224 239
-201.522354 -113.752029 403.200348 50 67 80
-201.513840 -113.748360 403.183350 173 187 202
-201.518570 -113.750801 403.192841 234 249 255
-201.521255 -113.753281 403.198242 243 253 255
-201.521713 -113.753708 403.199158 181 192 201
-201.521835 -113.752434 403.199432 221 236 247
-201.522369 -113.753342 403.200562 170 184 199
-201.518127 -113.749718 403.192078 209 226 239
-201.519119 -113.746956 403.194061 23 22 26
-201.514252 -113.742485 403.184326 41 61 75
-201.520035 -113.752426 403.195923 230 241 255
-201.520035 -113.752426 403.195923 230 241 255
-201.516144 -113.749092 403.188141 213 226 235
-201.522491 -113.754402 403.200897 225 240 253
-201.520645 -113.751900 403.197174 157 172 183
-201.520981 -113.753494 403.197906 224 236 248
-201.517471 -113.746033 403.190918 207 208 216
-201.518936 -113.751427 403.193878 210 224 239
-201.512070 -113.741226 403.180176 64 81 94
-201.520157 -113.751793 403.196350 232 244 255
-201.519272 -113.751511 403.194611 165 179 192
-201.513031 -113.746574 403.182190 57 73 84
-201.522430 -113.753723 403.201050 156 171 184
-201.519073 -113.750938 403.194366 170 181 190
-201.520111 -113.751366 403.196442 207 223 231
-201.520355 -113.751732 403.196991 155 166 175
-201.517990 -113.750031 403.192230 159 175 186
-201.520370 -113.753212 403.196991 143 152 166
-201.520416 -113.752724 403.197144 238 250 255
-201.516861 -113.750244 403.190002 220 231 245
-201.516861 -113.748642 403.190002 61 68 82
-201.521530 -113.753830 403.199463 241 250 255
-201.518524 -113.749748 403.193451 233 252 255
-201.518845 -113.752014 403.194092 201 215 230
-201.526581 -113.757401 403.209625 144 148 153
-201.519318 -113.752075 403.195068 165 177 189
-201.519669 -113.751396 403.195831 211 225 240
-201.518631 -113.751396 403.193787 167 176 190
-201.520706 -113.750793 403.197968 56 71 86
-201.517502 -113.749832 403.191559 220 238 249
-201.519699 -113.752151 403.196014 235 243 255
-201.520157 -113.753410 403.196930 157 168 182
-201.519928 -113.745552 403.196442 168 188 200
-201.518829 -113.744858 403.194275 41 56 69
-201.513977 -113.741913 403.184570 76 97 107
-201.519669 -113.750305 403.196014 179 199 213
-201.515732 -113.745544 403.188141 56 54 54
-201.514328 -113.742470 403.185333 103 119 130
-201.519012 -113.751602 403.194763 226 243 255
-201.522598 -113.748375 403.201935 166 175 189
-201.518997 -113.751823 403.194794 161 170 184
-201.519897 -113.751968 403.196594 134 149 160
-201.521347 -113.753799 403.199493 237 251 255
-201.518646 -113.750252 403.194122 223 238 251
-201.521759 -113.754219 403.200378 177 198 214
-201.521210 -113.754341 403.199280 240 253 255
-201.524521 -113.755440 403.205902 170 185 196
-201.521683 -113.751396 403.200226 187 204 217
-201.517136 -113.749557 403.191132 233 243 255
-201.514542 -113.742477 403.185944 209 226 239
-201.511307 -113.740509 403.179474 44 59 72
-201.514145 -113.745689 403.185181 53 53 53
-201.517929 -113.749619 403.192780 138 149 163
-201.504929 -113.737129 403.166718 114 129 140
-201.514099 -113.750160 403.185181 245 255 255
-201.519638 -113.751793 403.196289 242 253 255
-201.517319 -113.750397 403.191650 240 250 255
-201.519272 -113.750656 403.195557 160 174 189
-201.518005 -113.751381 403.193024 238 250 255
-201.518005 -113.751381 403.193024 238 250 255
-201.520065 -113.751328 403.197144 186 195 204
-201.518280 -113.750687 403.193573 162 171 185
-201.521912 -113.753906 403.200867 229 241 253
-201.512314 -113.741264 403.181671 108 124 132
-201.518585 -113.752243 403.194214 189 198 212
-201.514481 -113.742371 403.186005 204 219 234
-201.518112 -113.750557 403.193390 229 236 250
-201.519287 -113.753296 403.195740 166 177 186
-201.520599 -113.752075 403.198334 180 189 205
-201.518723 -113.751747 403.194580 160 173 182
-201.517349 -113.749947 403.191833 198 207 216
-201.518921 -113.749725 403.195007 217 239 251
-201.521347 -113.753372 403.199890 151 160 169
-201.518951 -113.751289 403.195129 236 251 255
-201.519562 -113.753151 403.196381 179 188 197
-201.517258 -113.749840 403.191803 247 250 255
-201.516785 -113.748306 403.190826 53 67 80
-201.523254 -113.756012 403.203827 169 173 178
-201.517029 -113.751816 403.191406 246 254 255
-201.519196 -113.750008 403.195709 140 158 169
-201.520309 -113.753349 403.197998 195 206 215
-201.517044 -113.746330 403.191437 157 172 183
-201.515366 -113.742783 403.188049 169 185 196
-201.518646 -113.751625 403.194672 184 194 201
-201.519485 -113.751221 403.196381 247 252 255
-201.522690 -113.755836 403.202820 44 45 46
-201.519241 -113.750847 403.195923 234 249 255
-201.519211 -113.751350 403.195923 228 243 255
-201.518143 -113.749886 403.193817 241 254 255
-201.521103 -113.754730 403.199738 234 245 254
-201.519638 -113.753029 403.196838 227 238 247
-201.516373 -113.750084 403.190308 248 252 255
-201.516464 -113.743423 403.190460 96 113 121
-201.519791 -113.753433 403.197174 160 170 177
-201.514343 -113.744217 403.186249 217 227 239
-201.519165 -113.751923 403.195953 229 238 247
-201.504105 -113.728676 403.165741 67 67 67
-201.504105 -113.728676 403.165741 67 67 67
-201.517838 -113.750160 403.193268 159 168 177
-201.519699 -113.753700 403.197021 241 254 255
-201.521622 -113.755249 403.200928 179 183 188
-201.515289 -113.742668 403.188232 178 196 207
-201.520386 -113.753120 403.198486 155 165 177
-201.516800 -113.749840 403.191345 167 178 192
-201.519012 -113.750740 403.195770 243 253 255
-201.518387 -113.750946 403.194519 236 251 255
-201.521591 -113.754951 403.200958 239 255 255
-201.516830 -113.751007 403.191437 153 160 170
-201.519760 -113.752342 403.197327 170 181 190
-201.517807 -113.750374 403.193451 241 248 255
-201.522614 -113.753746 403.203094 161 164 173
-201.522614 -113.753746 403.203094 161 164 173
-201.519363 -113.752541 403.196594 228 238 250
-201.519363 -113.752541 403.196594 228 238 250
-201.515701 -113.748611 403.189270 236 248 255
-201.519318 -113.753212 403.196533 149 161 173
-201.516373 -113.749695 403.190674 243 253 255
-201.516388 -113.748055 403.190643 202 225 237
-201.512466 -113.742165 403.182831 207 220 229
-201.512466 -113.742165 403.182831 207 220 229
-201.515167 -113.745850 403.188263 42 43 46
-201.520187 -113.752319 403.198334 248 254 255
-201.517639 -113.751228 403.193298 236 247 255
-201.519760 -113.752716 403.197540 241 252 255
-201.519760 -113.752716 403.197540 241 252 255
-201.519760 -113.752716 403.197540 241 252 255
-201.505157 -113.744431 403.168335 210 221 237
-201.505157 -113.744431 403.168335 210 221 237
-201.518127 -113.750923 403.194305 198 205 215
-201.522751 -113.755676 403.203583 239 250 255
-201.512238 -113.740883 403.182526 80 97 105
-201.518143 -113.752609 403.194397 238 251 255
-201.521942 -113.755348 403.201996 177 191 206
-201.520706 -113.750679 403.199524 138 148 155
-201.513382 -113.741440 403.184906 239 255 255
-201.516663 -113.745552 403.191498 188 200 212
-201.521271 -113.753754 403.200745 239 255 255
-201.519424 -113.752594 403.197083 169 180 194
-201.517319 -113.749832 403.192932 242 253 255
-201.517914 -113.743439 403.194061 3 9 16
-201.514252 -113.746750 403.186798 204 223 231
-201.518478 -113.752663 403.195251 244 252 255
-201.514923 -113.746918 403.188141 63 75 82
-201.520172 -113.751556 403.198669 183 196 205
-201.517029 -113.749146 403.192413 160 176 187
-201.512177 -113.740524 403.182709 34 45 54
-201.517944 -113.746338 403.194244 164 173 187
-201.518326 -113.752205 403.195038 148 159 173
-201.513489 -113.747612 403.185394 180 189 198
-201.519516 -113.753174 403.197479 177 183 191
-201.516022 -113.750107 403.190491 242 252 255
-201.515717 -113.748291 403.189850 230 244 255
-201.520142 -113.753914 403.198792 204 214 221
-201.514725 -113.744614 403.187927 218 228 240
-201.514221 -113.744438 403.186951 139 150 159
-201.516281 -113.749481 403.191101 238 253 255
-201.515625 -113.748787 403.189789 243 254 255
-201.519638 -113.752846 403.197815 160 173 182
-201.517822 -113.752083 403.194183 237 251 255
-201.517822 -113.752083 403.194183 237 251 255
-201.518951 -113.751740 403.196442 245 253 255
-201.512131 -113.740593 403.182831 207 218 227
-201.520462 -113.754295 403.199493 192 205 214
-201.513489 -113.742989 403.185516 206 218 225
-201.516693 -113.749046 403.191986 227 243 251
-201.517471 -113.751228 403.193573 237 242 252
-201.511688 -113.740631 403.181976 209 221 228
-201.516678 -113.746506 403.191986 243 253 255
-201.515854 -113.745850 403.190308 159 170 184
-201.511307 -113.747986 403.181274 245 255 255
-201.520325 -113.752472 403.199310 189 197 204
-201.517105 -113.748985 403.192871 222 239 254
-201.515976 -113.750488 403.190643 179 185 192
-201.511292 -113.740067 403.181305 208 216 228
-201.513916 -113.744354 403.186523 228 239 242
-201.515198 -113.744781 403.189148 235 243 255
-201.515198 -113.744781 403.189148 235 243 255
-201.521866 -113.755562 403.202484 238 253 255
-201.515472 -113.745316 403.189667 153 163 169
-201.519791 -113.752968 403.198334 168 179 188
-201.513718 -113.744812 403.186218 151 164 173
-201.512238 -113.741066 403.183258 121 129 137
-201.513214 -113.741394 403.185242 120 132 144
-201.520065 -113.751060 403.198975 168 177 191
-201.514862 -113.747604 403.188599 164 181 194
-201.514862 -113.747604 403.188599 164 181 194
-201.509964 -113.739883 403.178741 183 191 199
-201.516891 -113.748634 403.192596 232 247 255
-201.519775 -113.753250 403.198395 238 252 255
-201.519775 -113.753250 403.198395 238 252 255
-201.522247 -113.750656 403.203339 87 97 103
-201.510239 -113.739449 403.179321 90 102 114
-201.513977 -113.744598 403.186859 244 254 255
-201.513977 -113.744598 403.186859 244 254 255
-201.515030 -113.749069 403.188934 175 193 204
-201.521469 -113.754601 403.201874 198 209 218
-201.513168 -113.743996 403.185211 152 158 165
-201.511536 -113.740646 403.181976 203 213 220
-201.511536 -113.740646 403.181976 203 213 220
-201.514709 -113.747849 403.188354 179 189 201
-201.514709 -113.747849 403.188354 179 189 201
-201.510071 -113.744003 403.179047 56 72 80
-201.512405 -113.740593 403.183716 187 206 214
-201.515045 -113.748131 403.189026 235 245 255
-201.517822 -113.751175 403.194611 194 206 213
-201.516159 -113.747757 403.191254 91 106 117
-201.505341 -113.732246 403.169586 21 22 23
-201.514679 -113.744415 403.188324 132 142 154
-201.519699 -113.752518 403.198395 197 206 215
-201.515717 -113.746155 403.190430 198 206 213
-201.515472 -113.749184 403.189972 240 251 255
-201.513855 -113.744133 403.186737 151 158 168
-201.515930 -113.749252 403.190887 241 253 255
-201.516159 -113.749832 403.191406 239 255 255
-201.517715 -113.751305 403.194519 238 250 255
-201.520844 -113.754135 403.200806 176 188 195
-201.513840 -113.747162 403.186768 152 167 178
-201.513794 -113.746223 403.186707 229 247 255
-201.518494 -113.752373 403.196136 246 254 255
-201.518494 -113.752373 403.196136 246 254 255
-201.510849 -113.740059 403.180817 214 224 236
-201.513824 -113.744576 403.186768 150 154 159
-201.514938 -113.744972 403.189056 165 175 182
-201.511597 -113.740082 403.182343 219 235 243
-201.516525 -113.745773 403.192230 231 242 251
-201.517166 -113.750305 403.193512 241 255 255
-201.520523 -113.753716 403.200256 185 194 203
-201.515442 -113.747505 403.190063 211 226 237
-201.503708 -113.729538 403.166595 32 33 34
-201.508942 -113.735863 403.177094 27 30 27
-201.520615 -113.754974 403.200500 155 165 172
-201.506653 -113.731377 403.172546 31 35 40
-201.516342 -113.749161 403.191986 166 176 188
-201.522308 -113.756355 403.203949 240 250 255
-201.516418 -113.746384 403.192139 144 145 154
-201.511734 -113.740128 403.182770 242 254 255
-201.517563 -113.750816 403.194458 182 188 195
-201.513794 -113.746124 403.186920 172 189 204
-201.518005 -113.752274 403.195374 245 251 255
-201.513336 -113.744240 403.186035 153 156 159
-201.522064 -113.754295 403.203491 241 251 255
-201.515564 -113.742554 403.190521 120 137 143
-201.514893 -113.750923 403.189178 238 244 251
-201.511765 -113.744324 403.182922 166 172 179
-201.514984 -113.749474 403.189392 250 251 255
-201.519012 -113.752449 403.197418 233 248 255
-201.516907 -113.750656 403.193237 170 172 177
-201.518082 -113.750671 403.195618 219 226 236
-201.518082 -113.750671 403.195618 219 226 236
-201.510910 -113.739456 403.181244 28 44 52
-201.513382 -113.744804 403.186218 247 249 254
-201.512451 -113.746971 403.184387 158 167 181
-201.516479 -113.750923 403.192474 176 188 200
-201.517136 -113.750534 403.193756 155 158 167
-201.514572 -113.744553 403.188599 227 238 247
-201.514572 -113.744553 403.188599 227 238 247
-201.513870 -113.744705 403.187225 249 250 255
-201.518738 -113.753929 403.197021 241 253 255
-201.515854 -113.750328 403.191254 251 253 255
-201.518051 -113.752258 403.195679 201 204 212
-201.512161 -113.747047 403.183899 153 170 183
-201.512161 -113.747047 403.183899 153 170 183
-201.515839 -113.750160 403.191254 244 250 255
-201.518738 -113.751213 403.197052 171 177 190
-201.515976 -113.749390 403.191528 158 172 185
-201.516037 -113.745522 403.191650 136 148 154
-201.518112 -113.752998 403.195831 242 248 255
-201.516907 -113.751091 403.193390 243 252 255
-201.517776 -113.749916 403.195160 235 245 255
-201.514389 -113.748230 403.188416 223 237 250
-201.516174 -113.748222 403.191956 232 247 255
-201.519211 -113.751671 403.198059 239 245 255
-201.516983 -113.753090 403.193634 205 216 225
-201.520493 -113.749214 403.200623 175 177 182
-201.513809 -113.744926 403.187256 242 250 255
-201.506638 -113.741837 403.172913 60 82 96
-201.516495 -113.752220 403.192688 192 200 208
-201.516891 -113.746803 403.193481 152 158 165
-201.516006 -113.748253 403.191711 177 189 201
-201.517838 -113.752533 403.195374 185 192 202
-201.517792 -113.749542 403.195282 212 227 238
-201.513870 -113.746758 403.187439 229 244 255
-201.513870 -113.746758 403.187439 229 244 255
-201.513687 -113.745987 403.187042 166 188 202
-201.517929 -113.752449 403.195618 237 246 255
-201.514313 -113.744858 403.188354 145 148 156
-201.511673 -113.740524 403.183075 194 208 215
-201.507401 -113.738243 403.174530 124 128 133
-201.519424 -113.752335 403.198578 176 179 187
-201.513901 -113.744431 403.187531 245 254 255
-201.515732 -113.746414 403.191223 175 178 181
-201.511093 -113.739449 403.181976 24 40 48
-201.520706 -113.755669 403.201263 240 252 255
-201.518707 -113.753296 403.197235 179 185 198
-201.514084 -113.743828 403.187988 233 245 252
-201.516296 -113.750229 403.192383 156 170 183
-201.513947 -113.741173 403.187714 131 143 155
-201.515915 -113.748375 403.191650 231 243 255
-201.515915 -113.748375 403.191650 231 243 255
-201.515869 -113.749084 403.191620 160 171 185
-201.517105 -113.746841 403.194092 144 150 157
-201.515350 -113.749451 403.190613 227 243 254
-201.516174 -113.751778 403.192261 243 251 255
-201.514114 -113.746994 403.188110 182 193 209
-201.514114 -113.746994 403.188110 182 193 209
-201.513702 -113.745895 403.187317 176 199 209
-201.511200 -113.745667 403.182312 161 173 185
-201.517578 -113.751244 403.195068 211 221 233
-201.515228 -113.745247 403.190338 235 236 239
-201.520844 -113.753899 403.201630 243 253 255
-201.519882 -113.752968 403.199707 246 254 255
-201.514359 -113.746956 403.188660 223 244 254
-201.512756 -113.740318 403.185455 37 54 62
-201.520599 -113.755180 403.201202 173 182 191
-201.516037 -113.745575 403.192047 232 242 249
-201.510605 -113.739197 403.181183 162 177 188
-201.515076 -113.749245 403.190155 227 243 254
-201.515961 -113.749397 403.191925 244 253 255
-201.518890 -113.752213 403.197784 245 251 255
-201.518707 -113.752022 403.197418 163 170 184
-201.519547 -113.754509 403.199158 244 253 255
-201.517487 -113.746643 403.195007 138 140 145
-201.517334 -113.747757 403.194733 43 59 70
-201.513046 -113.743996 403.186157 147 150 153
-201.523956 -113.755585 403.208008 176 183 193
-201.517044 -113.750175 403.194183 243 255 255
-201.513275 -113.742699 403.186615 185 195 202
-201.512909 -113.745399 403.185913 179 199 213
-201.513809 -113.744675 403.187744 248 254 255
-201.516922 -113.752411 403.193970 241 251 255
-201.516922 -113.752411 403.193970 241 251 255
-201.514557 -113.748154 403.189270 162 179 192
-201.519089 -113.752792 403.198334 246 253 255
-201.514984 -113.749748 403.190094 238 254 255
-201.514984 -113.749748 403.190094 238 254 255
-201.514984 -113.749748 403.190094 238 254 255
-201.522232 -113.756866 403.204620 150 153 156
-201.513733 -113.747887 403.187592 175 190 203
-201.514099 -113.744942 403.188324 131 139 147
-201.515320 -113.748489 403.190826 229 246 255
-201.510651 -113.739044 403.181458 29 49 55
-201.518463 -113.754089 403.197144 244 253 255
-201.515228 -113.749641 403.190674 238 251 255
-201.507568 -113.734955 403.175323 209 221 228
-201.518661 -113.753731 403.197540 185 196 205
-201.513687 -113.744270 403.187592 236 247 255
-201.518372 -113.751953 403.196960 164 170 183
-201.515533 -113.745384 403.191315 142 150 157
-201.512527 -113.743820 403.185303 252 255 255
-201.513977 -113.747032 403.188263 240 250 255
-201.515152 -113.750076 403.190643 246 254 255
-201.517502 -113.753174 403.195312 240 254 255
-201.499954 -113.727646 403.160187 173 201 220
-201.514938 -113.749786 403.190186 234 244 251
-201.514938 -113.749786 403.190186 234 244 251
-201.515381 -113.747910 403.191071 167 177 189
-201.492294 -113.723557 403.144867 206 214 221
-201.519150 -113.747734 403.198639 139 145 152
-201.509384 -113.741585 403.179077 137 150 159
-201.514786 -113.748344 403.189911 236 252 255
-201.518066 -113.753357 403.196533 224 245 255
-201.515945 -113.750977 403.192291 234 242 250
-201.514496 -113.744820 403.189453 245 254 255
-201.514679 -113.748764 403.189819 190 193 201
-201.503342 -113.734833 403.167145 37 51 58
-201.514572 -113.748566 403.189667 243 249 255
-201.514572 -113.748566 403.189667 243 249 255
-201.511566 -113.742554 403.183655 122 136 142
-201.517288 -113.745949 403.195099 130 140 147
-201.520538 -113.749428 403.201630 49 70 80
-201.511658 -113.739632 403.183838 132 141 150
-201.500671 -113.727615 403.161865 41 44 45
-201.518112 -113.754745 403.196808 157 166 170
-201.516785 -113.747459 403.194153 178 202 212
-201.510803 -113.742004 403.182190 123 134 143
-201.513000 -113.739899 403.186584 4 11 15
-201.517838 -113.750282 403.196320 231 240 254
-201.517136 -113.751366 403.194916 162 172 184
-201.517136 -113.751366 403.194916 162 172 184
-201.514908 -113.745087 403.190430 246 255 255
-201.516754 -113.750305 403.194122 168 178 190
-201.519333 -113.752998 403.199341 162 171 180
-201.515427 -113.747917 403.191528 237 247 253
-201.515427 -113.747917 403.191528 237 247 253
-201.515427 -113.747917 403.191528 237 247 253
-201.519699 -113.753639 403.200043 233 241 253
-201.515244 -113.745033 403.191132 134 144 151
-201.517761 -113.752014 403.196228 230 238 245
-201.511063 -113.743011 403.182800 120 124 129
-201.516891 -113.751747 403.194458 234 244 255
-201.515884 -113.749687 403.192474 250 253 255
-201.519516 -113.751457 403.199738 160 168 180
-201.504303 -113.730789 403.169281 38 30 31
-201.514374 -113.748238 403.189453 238 248 255
-201.514374 -113.748238 403.189453 238 248 255
-201.501892 -113.728676 403.164490 64 86 100
-201.510803 -113.742043 403.182312 236 244 251
-201.515793 -113.750320 403.192352 171 177 185
-201.513641 -113.744041 403.188049 133 143 150
-201.515228 -113.749222 403.191254 171 177 185
-201.519562 -113.752731 403.199921 236 244 255
-201.515350 -113.749611 403.191498 225 237 249
-201.507034 -113.736908 403.174866 130 142 149
-201.516159 -113.750412 403.193146 246 254 255
-201.513092 -113.746490 403.186981 243 254 255
-201.513641 -113.743042 403.188110 128 140 147
-201.512909 -113.742760 403.186646 213 224 233
-201.513885 -113.745567 403.188599 52 69 82
-201.512314 -113.746979 403.185486 252 253 255
-201.515060 -113.750397 403.190979 238 249 252
-201.502151 -113.728928 403.165161 201 223 239
-201.517944 -113.752220 403.196808 161 169 177
-201.510971 -113.742455 403.182861 146 150 155
-201.510239 -113.741577 403.181396 117 120 128
-201.511047 -113.742279 403.182983 123 127 132
-201.513336 -113.744057 403.187622 251 253 255
-201.517975 -113.752426 403.196899 151 164 173
-201.515579 -113.749992 403.192108 158 168 175
-201.509079 -113.742294 403.179138 152 156 161
-201.512161 -113.744682 403.185364 189 209 221
-201.516266 -113.751389 403.193573 246 253 255
-201.516266 -113.751389 403.193573 246 253 255
-201.513474 -113.747574 403.188019 190 198 210
-201.518524 -113.753822 403.198151 207 216 225
-201.511337 -113.746040 403.183746 166 178 190
-201.507492 -113.739197 403.176056 123 135 147
-201.511871 -113.743164 403.184845 182 183 186
-201.512436 -113.743355 403.185944 254 255 255
-201.512207 -113.743088 403.185516 253 254 255
-201.514984 -113.750061 403.191101 243 255 255
-201.512894 -113.742752 403.186920 123 123 128
-201.506638 -113.740860 403.174408 148 155 159
-201.508118 -113.737541 403.177368 57 69 76
-201.512558 -113.743896 403.186310 242 243 246
-201.512711 -113.746315 403.186584 244 252 255
-201.509109 -113.738022 403.179382 164 178 185
-201.516251 -113.750496 403.193665 243 253 255
-201.512573 -113.742264 403.186371 117 128 137
-201.520660 -113.753647 403.202515 186 189 197
-201.511978 -113.741814 403.185150 201 211 223
-201.497025 -113.728554 403.155212 81 92 106
-201.516068 -113.751556 403.193359 156 162 175
-201.517197 -113.751503 403.195648 170 179 188
-201.512665 -113.742470 403.186554 241 251 255
-201.512665 -113.742470 403.186554 241 251 255
-201.511993 -113.744026 403.185211 40 44 49
-201.512375 -113.743317 403.185974 120 121 122
-201.512573 -113.739899 403.186371 131 143 150
-201.514267 -113.748253 403.189789 250 253 255
-201.510895 -113.743866 403.183044 167 189 203
-201.513016 -113.747185 403.187317 171 186 197
-201.512741 -113.746513 403.186798 245 246 254
-201.513763 -113.748779 403.188843 235 246 255
-201.515518 -113.749649 403.192383 161 176 189
-201.518524 -113.752541 403.198395 223 229 237
-201.515900 -113.749680 403.193176 228 239 255
-201.512039 -113.741898 403.185455 124 132 144
-201.514267 -113.746017 403.189911 135 143 151
-201.519485 -113.755592 403.200378 245 254 255
-201.495773 -113.725555 403.152863 201 213 220
-201.521027 -113.756836 403.203461 168 172 177
-201.518219 -113.754402 403.197845 174 184 196
-201.509506 -113.738106 403.180420 176 190 197
-201.523056 -113.757294 403.207550 246 254 255
-201.504745 -113.733147 403.170929 200 227 242
-201.512634 -113.742340 403.186707 246 254 255
-201.510681 -113.741379 403.182770 132 133 134
-201.519897 -113.755257 403.201233 241 253 255
-201.519897 -113.755257 403.201233 241 253 255
-201.513138 -113.744316 403.187744 214 217 220
-201.516953 -113.751579 403.195404 150 156 164
-201.513535 -113.748909 403.188599 241 249 255
-201.516876 -113.751450 403.195251 243 254 255
-201.516220 -113.746323 403.193939 65 68 76
-201.507690 -113.747589 403.176910 165 168 176
-201.509552 -113.740517 403.180634 239 249 255
-201.509552 -113.740517 403.180634 239 249 255
-201.516342 -113.749802 403.194214 236 246 255
-201.504898 -113.730873 403.171326 238 245 249
-201.519272 -113.755386 403.200104 201 208 218
-201.513962 -113.746887 403.189453 185 191 198
-201.513763 -113.745407 403.189117 179 204 219
-201.516434 -113.752419 403.194458 251 253 255
-201.517105 -113.751930 403.195801 242 251 255
-201.517105 -113.751930 403.195801 242 251 255
-201.518051 -113.752968 403.197723 236 250 255
-201.518051 -113.752968 403.197723 236 250 255
-201.513077 -113.747055 403.187775 171 182 198
-201.513077 -113.747055 403.187775 171 182 198
-201.511948 -113.746048 403.185547 233 239 247
-201.512955 -113.746017 403.187531 249 252 255
-201.517685 -113.751801 403.197021 227 232 247
-201.517685 -113.751801 403.197021 227 232 247
-201.518494 -113.754585 403.198669 242 253 255
-201.522720 -113.757721 403.207092 246 254 255
-201.507904 -113.737114 403.177429 134 146 152
-201.510834 -113.744301 403.183350 233 249 255
-201.516586 -113.753380 403.194855 188 200 212
-201.516586 -113.753380 403.194855 188 200 212
-201.514038 -113.749207 403.189758 175 183 190
-201.511185 -113.745911 403.184052 150 161 177
-201.511185 -113.745911 403.184052 150 161 177
-201.515457 -113.745285 403.192596 130 132 137
-201.516891 -113.752068 403.195496 232 248 255
-201.517334 -113.753365 403.196381 243 255 255
-201.513809 -113.748444 403.189331 173 182 191
-201.517517 -113.746979 403.196777 72 73 81
-201.515747 -113.749039 403.193237 197 201 206
-201.513184 -113.745331 403.188110 214 229 248
-201.523056 -113.756310 403.207855 174 180 193
-201.512772 -113.746361 403.187286 246 254 255
-201.513748 -113.750404 403.189270 160 175 186
-201.517334 -113.752930 403.196472 248 251 255
-201.510101 -113.738029 403.181976 75 88 97
-201.519775 -113.755569 403.201324 242 252 255
-201.510345 -113.738014 403.182465 3 7 12
-201.510727 -113.738235 403.183258 3 7 12
-201.519958 -113.756432 403.201752 162 169 173
-201.504639 -113.735085 403.171112 37 50 59
-201.509506 -113.746315 403.180878 216 233 248
-201.509506 -113.746315 403.180878 216 233 248
-201.514618 -113.750259 403.191132 245 254 255
-201.514465 -113.748199 403.190796 245 255 255
-201.515442 -113.752525 403.192810 244 253 255
-201.515472 -113.749481 403.192841 167 176 190
-201.516632 -113.751495 403.195190 227 236 245
-201.516632 -113.751495 403.195190 227 236 245
-201.516632 -113.751495 403.195190 227 236 245
-201.516174 -113.751610 403.194275 226 237 246
-201.513123 -113.747223 403.188141 156 169 186
-201.513107 -113.745033 403.188141 131 152 168
-201.511887 -113.745804 403.185730 241 246 255
