ply
format ascii 1.0
element vertex 1100
property float x
property float y
property float z
property uchar red
property uchar green
property uchar blue
end_header
-24.008453 -13.574849 48.030586 221 236 247
-24.008343 -13.574375 48.030365 214 229 240
-24.008369 -13.575388 48.030422 146 167 183
-24.008411 -13.574982 48.030510 223 233 245
-24.008411 -13.574982 48.030510 223 233 245
-24.008366 -13.574501 48.030426 172 178 186
-24.008242 -13.573321 48.030190 44 59 70
-24.008446 -13.574993 48.030609 242 253 255
-24.008436 -13.575020 48.030594 242 253 255
-24.008390 -13.574567 48.030514 241 251 255
-24.008341 -13.575408 48.030418 165 185 199
-24.008427 -13.575010 48.030598 171 183 190
-24.008394 -13.574560 48.030548 173 182 191
-24.008394 -13.574560 48.030548 173 182 191
-24.008430 -13.574970 48.030632 147 164 177
-24.008335 -13.574796 48.030453 157 171 184
-24.008511 -13.576839 48.030819 65 66 67
-24.008287 -13.575377 48.030376 78 90 97
-24.008322 -13.574384 48.030453 120 136 147
-24.008385 -13.575511 48.030598 57 74 82
-24.008364 -13.574778 48.030560 141 158 166
-24.008324 -13.575279 48.030483 56 72 80
-24.008642 -13.575797 48.031143 25 26 24
-24.008171 -13.574203 48.030197 70 78 85
-24.008268 -13.575362 48.030403 75 87 94
-24.008137 -13.574312 48.030163 86 96 102
-24.008385 -13.575056 48.030663 195 210 221
-24.008316 -13.574494 48.030533 239 250 255
-24.008211 -13.575421 48.030319 127 136 145
-24.008284 -13.574691 48.030472 153 169 177
-24.008284 -13.574691 48.030472 153 169 177
-24.008369 -13.574874 48.030647 198 209 218
-24.008324 -13.574582 48.030563 165 176 190
-24.008436 -13.575627 48.030792 220 232 239
-24.008381 -13.574863 48.030678 240 252 255
-24.008165 -13.575417 48.030254 173 181 193
-24.008383 -13.575003 48.030689 225 240 255
-24.008183 -13.573462 48.030308 34 39 40
-24.008183 -13.573453 48.030312 30 35 36
-24.008327 -13.576005 48.030598 206 221 234
-24.008369 -13.575963 48.030689 109 124 127
-24.008369 -13.575963 48.030689 109 124 127
-24.008348 -13.574970 48.030647 168 180 192
-24.008411 -13.575782 48.030785 148 158 165
-24.008223 -13.573306 48.030407 53 64 78
-24.008255 -13.574477 48.030472 140 155 170
-24.008354 -13.575066 48.030682 242 251 255
-24.008110 -13.574359 48.030197 236 249 255
-24.008329 -13.575928 48.030647 35 46 49
-24.008348 -13.574978 48.030689 243 253 255
-24.008375 -13.575046 48.030746 170 178 190
-24.008257 -13.575438 48.030510 178 193 206
-24.008257 -13.575438 48.030510 178 193 206
-24.008284 -13.574601 48.030575 158 173 186
-24.008318 -13.576018 48.030647 226 238 245
-24.008326 -13.574843 48.030663 241 254 255
-24.008326 -13.574843 48.030663 241 254 255
-24.008272 -13.574569 48.030567 173 181 193
-24.008436 -13.576893 48.030907 67 67 67
-24.008329 -13.574791 48.030697 107 118 132
-24.008068 -13.574336 48.030178 90 101 110
-24.008276 -13.574512 48.030594 217 237 255
-24.008434 -13.575668 48.030910 190 198 205
-24.008205 -13.575350 48.030464 76 93 101
-24.008331 -13.574852 48.030712 142 158 169
-24.008331 -13.574852 48.030712 142 158 169
-24.008190 -13.575432 48.030441 177 189 196
-24.008167 -13.573268 48.030403 58 72 78
-24.008085 -13.574237 48.030243 110 129 137
-24.008085 -13.574237 48.030243 110 129 137
-24.008123 -13.573425 48.030323 164 185 195
-24.008255 -13.574533 48.030590 151 167 178
-24.008295 -13.574876 48.030670 158 167 176
-24.008286 -13.575993 48.030655 56 60 65
-24.008324 -13.574982 48.030758 235 247 253
-24.008249 -13.574908 48.030613 245 253 255
-24.008074 -13.576158 48.030289 76 88 95
-24.008215 -13.574550 48.030575 202 213 229
-24.008451 -13.576693 48.031048 227 237 244
-24.008335 -13.574973 48.030819 245 254 255
-24.008101 -13.573287 48.030354 82 92 99
-24.008053 -13.576201 48.030266 248 255 255
-24.008068 -13.574098 48.030308 198 224 243
-24.008215 -13.574551 48.030617 157 172 187
-24.008068 -13.573221 48.030350 131 143 150
-24.008213 -13.574616 48.030640 240 252 255
-24.008312 -13.576054 48.030842 81 91 93
-24.008272 -13.574967 48.030777 182 190 202
-24.008202 -13.574616 48.030640 134 139 149
-24.008282 -13.575940 48.030804 223 232 241
-24.008135 -13.574772 48.030518 150 167 180
-24.007963 -13.574063 48.030182 211 226 241
-24.008198 -13.574618 48.030666 226 231 241
-24.008198 -13.574579 48.030670 246 253 255
-24.007935 -13.573116 48.030155 72 82 88
-24.008064 -13.576235 48.030415 115 123 131
-24.008064 -13.576235 48.030415 115 123 131
-24.008194 -13.574600 48.030689 245 253 255
-24.008249 -13.574872 48.030796 146 156 163
-24.008249 -13.574872 48.030796 146 156 163
-24.008255 -13.574845 48.030807 185 202 215
-24.008011 -13.574043 48.030323 95 111 122
-24.007980 -13.573165 48.030277 130 141 144
-24.008175 -13.574604 48.030678 190 200 207
-24.008125 -13.575395 48.030575 170 187 195
-24.008213 -13.574564 48.030758 116 132 140
-24.008234 -13.575945 48.030807 208 212 217
-24.008024 -13.573164 48.030392 58 66 73
-24.008242 -13.576097 48.030834 71 86 99
-24.007980 -13.574056 48.030315 86 94 102
-24.008148 -13.574632 48.030647 103 115 127
-24.008041 -13.573973 48.030445 88 105 111
-24.008198 -13.574615 48.030762 154 163 177
-24.008247 -13.574968 48.030865 174 182 190
-24.008232 -13.574882 48.030834 151 163 170
-24.007994 -13.573219 48.030365 78 81 90
-24.008245 -13.575998 48.030865 210 218 225
-24.008167 -13.574625 48.030720 241 247 254
-24.008154 -13.574654 48.030701 224 240 248
-24.008215 -13.574819 48.030838 68 87 95
-24.008196 -13.576039 48.030811 88 110 117
-24.008175 -13.574848 48.030781 148 164 175
-24.008015 -13.572927 48.030479 39 47 49
-24.008175 -13.574862 48.030800 227 242 253
-24.008190 -13.574869 48.030834 235 250 255
-24.008190 -13.574869 48.030834 235 250 255
-24.007986 -13.574277 48.030441 41 58 63
-24.008133 -13.574646 48.030735 237 252 255
-24.008236 -13.574895 48.030956 157 172 185
-24.008095 -13.574528 48.030685 170 188 199
-24.008190 -13.574957 48.030884 252 253 255
-24.008097 -13.574638 48.030697 218 227 243
-24.007942 -13.573172 48.030407 79 89 95
-24.008146 -13.574891 48.030819 187 203 214
-24.008152 -13.574670 48.030834 115 129 142
-24.008160 -13.574943 48.030865 250 255 255
-24.008158 -13.574856 48.030884 91 100 109
-24.008112 -13.574703 48.030811 239 249 255
-24.008101 -13.574824 48.030796 149 157 169
-24.008110 -13.576012 48.030811 75 96 106
-24.008106 -13.574863 48.030827 233 250 255
-24.008110 -13.574705 48.030853 135 145 157
-24.008146 -13.575948 48.030922 21 43 50
-24.007988 -13.573327 48.030609 181 194 203
-24.007942 -13.576138 48.030514 150 156 164
-24.007929 -13.576539 48.030514 188 196 204
-24.008104 -13.574890 48.030872 223 232 241
-24.007950 -13.573094 48.030571 66 78 85
-24.008101 -13.574870 48.030876 167 180 189
-24.008078 -13.574725 48.030830 214 229 242
-24.007944 -13.576509 48.030563 100 117 125
-24.008003 -13.572835 48.030693 78 86 88
-24.008078 -13.574707 48.030838 130 147 160
-24.008253 -13.574938 48.031193 101 123 130
-24.008078 -13.574741 48.030857 202 217 232
-24.008101 -13.574883 48.030903 137 149 156
-24.007874 -13.573037 48.030457 64 72 74
-24.008059 -13.574726 48.030838 133 148 163
-24.007971 -13.575845 48.030663 81 103 115
-24.008038 -13.572825 48.030807 47 50 53
-24.008099 -13.574886 48.030926 224 236 243
-24.008045 -13.574834 48.030827 93 111 122
-24.007889 -13.576218 48.030510 134 150 158
-24.007885 -13.576064 48.030506 222 236 251
-24.008043 -13.574347 48.030830 50 72 84
-24.007866 -13.576023 48.030476 81 92 106
-24.007910 -13.576262 48.030563 192 210 221
-24.008078 -13.574877 48.030910 226 243 249
-24.007948 -13.576558 48.030651 130 138 145
-24.007812 -13.575735 48.030384 174 191 206
-24.008055 -13.574755 48.030869 223 237 250
-24.007917 -13.575696 48.030602 70 80 86
-24.007929 -13.576574 48.030624 147 151 156
-24.007887 -13.576494 48.030544 241 253 255
-24.008089 -13.574857 48.030952 78 94 102
-24.008089 -13.574857 48.030952 78 94 102
-24.007923 -13.573097 48.030621 128 140 146
-24.007849 -13.573087 48.030499 86 92 99
-24.007872 -13.576241 48.030537 107 113 121
-24.007971 -13.574354 48.030750 192 198 206
-24.007860 -13.576089 48.030533 139 153 160
-24.007936 -13.574156 48.030693 182 202 214
-24.007832 -13.576214 48.030476 166 181 192
-24.007858 -13.576186 48.030537 127 139 151
-24.007858 -13.576186 48.030537 127 139 151
-24.007807 -13.576019 48.030441 226 241 255
-24.008024 -13.574723 48.030903 137 154 167
-24.007767 -13.575878 48.030388 90 108 119
-24.007824 -13.575997 48.030502 97 117 129
-24.008007 -13.574424 48.030888 183 191 198
-24.007967 -13.574189 48.030823 196 210 223
-24.008003 -13.574306 48.030910 54 73 81
-24.007772 -13.575881 48.030457 241 252 255
-24.007824 -13.575739 48.030563 174 191 206
-24.007801 -13.575974 48.030533 97 117 129
-24.007809 -13.576011 48.030548 232 247 255
-24.007786 -13.575943 48.030525 200 220 232
-24.007828 -13.576469 48.030621 128 138 145
-24.007816 -13.576047 48.030598 153 162 171
-24.007818 -13.575979 48.030602 202 225 237
-24.007936 -13.574115 48.030846 57 77 89
-24.007833 -13.576428 48.030640 196 211 224
-24.007792 -13.575988 48.030567 206 217 226
-24.007790 -13.575864 48.030579 230 244 255
-24.007807 -13.572983 48.030632 61 71 73
-24.007805 -13.572982 48.030628 61 71 73
-24.007742 -13.575519 48.030502 109 127 133
-24.007742 -13.575519 48.030502 109 127 133
-24.007931 -13.574127 48.030891 179 201 215
-24.007828 -13.572979 48.030689 65 73 73
-24.007772 -13.575863 48.030579 171 186 201
-24.007900 -13.574245 48.030861 202 215 224
-24.007763 -13.575876 48.030586 233 241 253
-24.007740 -13.572941 48.030552 59 72 75
-24.007833 -13.576495 48.030754 143 151 158
-24.007923 -13.574468 48.030972 26 37 40
-24.007753 -13.575678 48.030636 163 180 195
-24.007895 -13.574368 48.030930 201 208 212
-24.007732 -13.575860 48.030602 229 243 255
-24.007959 -13.574911 48.031086 76 95 103
-24.007746 -13.572937 48.030670 58 68 74
-24.007732 -13.575989 48.030651 188 200 212
-24.007746 -13.576067 48.030682 137 153 161
-24.007717 -13.572951 48.030640 130 143 146
-24.007854 -13.572551 48.030922 53 56 53
-24.007620 -13.573080 48.030453 182 200 206
-24.007729 -13.576006 48.030674 135 147 159
-24.007927 -13.574734 48.031105 90 100 106
-24.007856 -13.574821 48.030972 181 197 205
-24.007856 -13.574821 48.030972 181 197 205
-24.007725 -13.575960 48.030708 143 154 163
-24.007725 -13.575960 48.030708 143 154 163
-24.007666 -13.576138 48.030586 125 140 151
-24.007833 -13.576474 48.030930 168 184 192
-24.007830 -13.574767 48.030926 179 198 206
-24.007685 -13.572998 48.030643 97 107 113
-24.007679 -13.575807 48.030628 244 255 255
-24.007679 -13.575807 48.030628 244 255 255
-24.007881 -13.574758 48.031044 81 93 99
-24.007645 -13.576084 48.030613 101 116 127
-24.007698 -13.575565 48.030724 84 97 106
-24.007805 -13.574750 48.030937 185 201 209
-24.007875 -13.574462 48.031101 179 196 202
-24.007624 -13.572940 48.030624 93 101 108
-24.007992 -13.576624 48.031372 60 68 70
-24.007706 -13.572594 48.030815 80 84 89
-24.007742 -13.574672 48.030891 86 98 105
-24.007692 -13.575633 48.030853 169 191 207
-24.007746 -13.574332 48.030979 165 176 185
-24.007746 -13.574332 48.030979 165 176 185
-24.007799 -13.574491 48.031090 191 199 201
-24.007645 -13.575836 48.030788 215 225 237
-24.007589 -13.572859 48.030724 131 138 142
-24.007614 -13.575588 48.030785 162 182 194
-24.007685 -13.576406 48.030937 180 191 194
-24.007721 -13.576466 48.031025 237 246 250
-24.007669 -13.574638 48.030930 99 117 128
-24.007519 -13.572985 48.030640 178 198 204
-24.007734 -13.572526 48.031067 63 71 73
-24.007607 -13.576296 48.030811 119 134 145
-24.007729 -13.574295 48.031071 143 156 165
-24.007729 -13.574295 48.031071 143 156 165
-24.007740 -13.574319 48.031097 154 165 174
-24.007957 -13.576730 48.031536 225 233 240
-24.007696 -13.576441 48.031021 175 183 191
-24.007755 -13.574704 48.031158 187 203 214
-24.007727 -13.574451 48.031109 159 166 170
-24.007708 -13.574750 48.031086 172 179 183
-24.007587 -13.574567 48.030853 107 121 128
-24.007732 -13.576506 48.031162 121 126 129
-24.007593 -13.575990 48.030891 146 161 172
-24.007744 -13.574403 48.031200 198 214 222
-24.007536 -13.573125 48.030800 169 180 189
-24.007561 -13.575706 48.030857 235 247 254
-24.007751 -13.574479 48.031273 53 67 74
-24.007723 -13.574442 48.031216 157 169 175
-24.007748 -13.577181 48.031269 66 76 78
-24.007551 -13.575998 48.030918 121 131 138
-24.007551 -13.575998 48.030918 121 131 138
-24.007681 -13.577202 48.031170 224 236 242
-24.007462 -13.573153 48.030766 242 252 255
-24.007673 -13.574429 48.031235 55 67 73
-24.007601 -13.574227 48.031097 151 168 176
-24.007603 -13.574637 48.031151 197 209 221
-24.007565 -13.574555 48.031082 116 131 142
-24.007658 -13.572638 48.031303 115 125 131
-24.007650 -13.574334 48.031292 207 218 227
-24.007540 -13.576138 48.031082 128 144 152
-24.007431 -13.575383 48.030869 88 105 111
-24.007618 -13.574678 48.031242 185 187 192
-24.007532 -13.574584 48.031101 150 161 170
-24.007519 -13.576179 48.031090 126 137 146
-24.007519 -13.576179 48.031090 126 137 146
-24.007528 -13.576337 48.031147 178 193 204
-24.007433 -13.575625 48.030994 227 242 253
-24.007595 -13.577140 48.031345 102 112 119
-24.007509 -13.576315 48.031200 164 176 188
-24.007513 -13.574299 48.031219 167 177 183
-24.007521 -13.574263 48.031239 196 208 215
-24.007505 -13.572644 48.031235 34 46 53
-24.007521 -13.574321 48.031273 31 43 55
-24.007429 -13.576270 48.031094 168 183 194
-24.007380 -13.575579 48.031017 233 247 255
-24.007395 -13.575597 48.031055 226 238 250
-24.007650 -13.574942 48.031582 101 110 119
-24.007507 -13.574334 48.031303 131 154 164
-24.007517 -13.574316 48.031322 46 62 70
-24.007442 -13.574467 48.031223 126 142 153
-24.007519 -13.574290 48.031399 164 176 182
-24.007462 -13.574497 48.031300 197 215 226
-24.007381 -13.574419 48.031143 136 149 158
-24.007395 -13.575584 48.031227 222 238 249
-24.007395 -13.575584 48.031227 222 238 249
-24.007439 -13.574226 48.031322 202 216 223
-24.007372 -13.574443 48.031197 195 214 222
-24.007156 -13.575003 48.030773 100 113 122
-24.007410 -13.576117 48.031300 120 130 142
-24.007511 -13.572928 48.031536 81 90 94
-24.007591 -13.576465 48.031696 69 83 90
-24.007534 -13.575132 48.031590 47 57 63
-24.007326 -13.575307 48.031178 74 86 92
-24.007269 -13.575152 48.031067 221 233 240
-24.007427 -13.572811 48.031391 23 40 46
-24.007418 -13.574244 48.031380 60 76 84
-24.007341 -13.574809 48.031231 200 213 222
-24.007341 -13.574809 48.031231 200 213 222
-24.007748 -13.574858 48.032059 19 21 20
-24.007748 -13.574858 48.032059 19 21 20
-24.007336 -13.574391 48.031239 122 136 149
-24.007359 -13.575959 48.031326 117 132 143
-24.007313 -13.574862 48.031239 231 239 247
-24.007406 -13.572859 48.031437 26 39 48
-24.007299 -13.575905 48.031246 182 194 206
-24.007313 -13.574860 48.031292 204 216 223
-24.007317 -13.575423 48.031303 129 141 153
-24.007339 -13.576206 48.031353 100 109 118
-24.007339 -13.576206 48.031353 100 109 118
-24.007307 -13.575515 48.031292 216 231 244
-24.007305 -13.574892 48.031311 213 223 230
-24.007318 -13.576076 48.031361 190 206 217
-24.007620 -13.574782 48.031986 87 101 107
-24.007288 -13.574927 48.031319 175 185 192
-24.007311 -13.573595 48.031372 70 86 97
-24.007280 -13.574898 48.031319 77 87 94
-24.007202 -13.575397 48.031162 218 235 241
-24.007223 -13.575437 48.031212 138 154 162
-24.007195 -13.575295 48.031162 222 232 239
-24.007198 -13.575209 48.031178 143 155 161
-24.007208 -13.575461 48.031212 157 167 179
-24.007265 -13.574928 48.031326 81 91 98
-24.007296 -13.574992 48.031395 188 198 205
-24.007269 -13.575957 48.031361 130 147 155
-24.007221 -13.575504 48.031281 160 173 182
-24.007256 -13.574888 48.031353 61 73 80
-24.007479 -13.573588 48.031803 97 100 103
-24.007236 -13.575018 48.031330 79 90 93
-24.007338 -13.575524 48.031532 223 233 240
-24.007359 -13.577096 48.031612 113 123 130
-24.007200 -13.575559 48.031300 135 146 155
-24.007456 -13.573560 48.031818 106 115 119
-24.007231 -13.576006 48.031433 173 189 200
-24.007231 -13.576006 48.031433 173 189 200
-24.007109 -13.575438 48.031189 234 244 250
-24.007339 -13.573050 48.031658 29 43 49
-24.007265 -13.577078 48.031525 126 134 136
-24.007477 -13.573562 48.031960 116 129 132
-24.007418 -13.576331 48.031837 171 181 188
-24.007118 -13.575463 48.031261 93 103 109
-24.007307 -13.576956 48.031639 60 77 83
-24.007229 -13.573799 48.031494 234 244 251
-24.007183 -13.574174 48.031406 159 175 183
-24.007338 -13.573159 48.031719 116 126 133
-24.007116 -13.575495 48.031281 114 122 130
-24.007229 -13.576025 48.031506 119 130 139
-24.007212 -13.574295 48.031502 133 147 160
-24.007328 -13.573133 48.031746 34 46 53
-24.007435 -13.573797 48.031986 166 179 188
-24.007187 -13.574327 48.031490 218 228 240
-24.007187 -13.575892 48.031506 171 189 200
-24.007187 -13.575892 48.031506 171 189 200
-24.007095 -13.575691 48.031338 202 217 230
-24.007444 -13.576378 48.032051 169 181 187
-24.007385 -13.573788 48.031940 128 150 157
-24.007401 -13.573507 48.031975 124 137 140
-24.007275 -13.575105 48.031723 130 142 148
-24.007202 -13.574179 48.031582 120 133 142
-24.007164 -13.574111 48.031559 209 225 236
-24.007410 -13.576321 48.032066 220 231 240
-24.007088 -13.574212 48.031429 83 97 104
-24.007223 -13.577000 48.031708 64 76 83
-24.007105 -13.573974 48.031475 215 223 231
-24.007130 -13.573400 48.031532 25 25 25
-24.007145 -13.575065 48.031570 135 147 153
-24.007231 -13.577024 48.031750 62 78 86
-24.007103 -13.574022 48.031509 109 122 131
-24.007288 -13.575009 48.031914 51 64 67
-24.007217 -13.575047 48.031780 68 82 89
-24.007160 -13.577065 48.031681 90 98 105
-24.007153 -13.575025 48.031670 127 141 148
-24.007238 -13.576847 48.031845 69 83 90
-24.007238 -13.576847 48.031845 69 83 90
-24.007215 -13.575047 48.031834 67 77 84
-24.006969 -13.573380 48.031357 183 193 199
-24.006975 -13.573229 48.031372 67 77 83
-24.007380 -13.576330 48.032188 179 196 202
-24.006916 -13.574175 48.031296 209 226 234
-24.006916 -13.574175 48.031296 209 226 234
-24.007122 -13.577143 48.031780 143 158 171
-24.007206 -13.576821 48.031952 62 79 85
-24.007114 -13.577131 48.031780 232 245 254
-24.007116 -13.576158 48.031780 176 193 199
-24.006960 -13.573975 48.031498 97 108 117
-24.006960 -13.573975 48.031498 97 108 117
-24.006956 -13.573981 48.031540 212 228 236
-24.006891 -13.573359 48.031410 45 55 61
-24.006929 -13.575648 48.031525 123 137 144
-24.007017 -13.576230 48.031704 165 179 186
-24.006889 -13.575831 48.031464 245 251 255
-24.006956 -13.573997 48.031605 69 81 88
-24.006956 -13.573997 48.031605 69 81 88
-24.007332 -13.577633 48.032372 141 161 167
-24.007027 -13.577102 48.031769 240 251 255
-24.007046 -13.577034 48.031887 84 93 102
-24.007069 -13.576829 48.032024 60 77 83
-24.007069 -13.576829 48.032024 60 77 83
-24.007145 -13.576805 48.032177 68 82 89
-24.006927 -13.576419 48.031761 154 171 177
-24.007051 -13.576859 48.032028 68 80 87
-24.007053 -13.576895 48.032059 66 83 89
-24.007053 -13.576895 48.032059 66 83 89
-24.006998 -13.577072 48.031952 241 249 255
-24.006998 -13.575032 48.031986 92 102 109
-24.006878 -13.577081 48.031754 147 160 169
-24.006994 -13.576959 48.031990 79 93 100
-24.007072 -13.576782 48.032154 75 92 100
-24.006981 -13.577070 48.031971 249 253 255
-24.006887 -13.576520 48.031834 155 165 172
-24.006954 -13.577123 48.031963 141 158 164
-24.006840 -13.576518 48.031784 149 161 168
-24.006840 -13.576518 48.031784 149 161 168
-24.007044 -13.574282 48.032215 71 83 89
-24.006836 -13.575706 48.031811 234 246 253
-24.006998 -13.576940 48.032150 83 97 104
-24.007004 -13.574728 48.032188 52 60 67
-24.006866 -13.576562 48.031929 159 170 179
-24.006924 -13.577080 48.032047 237 240 248
-24.006783 -13.574044 48.031776 92 105 114
-24.007055 -13.574434 48.032326 111 121 128
-24.007126 -13.576825 48.032475 188 204 212
-24.006746 -13.575312 48.031727 102 112 119
-24.006910 -13.577046 48.032055 177 183 190
-24.006832 -13.576532 48.031937 236 248 255
-24.007082 -13.574434 48.032455 92 106 113
-24.007151 -13.576833 48.032597 219 232 241
-24.006895 -13.577074 48.032082 80 88 96
-24.006926 -13.576904 48.032146 223 236 245
-24.006674 -13.575418 48.031643 243 249 255
-24.007141 -13.576825 48.032593 147 163 171
-24.006695 -13.575576 48.031704 136 148 155
-24.007040 -13.574774 48.032394 92 104 111
-24.006876 -13.574789 48.032070 140 153 162
-24.006699 -13.575637 48.031719 231 243 250
-24.006910 -13.576900 48.032146 221 233 240
-24.006527 -13.575250 48.031384 133 140 150
-24.006527 -13.575250 48.031384 133 140 150
-24.006924 -13.576893 48.032185 91 103 110
-24.006634 -13.575314 48.031605 132 141 150
-24.006634 -13.575314 48.031605 132 141 150
-24.007027 -13.574438 48.032391 98 107 111
-24.006613 -13.575169 48.031574 240 249 255
-24.006910 -13.576826 48.032196 186 202 210
-24.006828 -13.576571 48.032051 245 252 255
-24.006844 -13.576580 48.032082 246 253 255
-24.006876 -13.576825 48.032146 92 103 112
-24.006821 -13.574708 48.032063 102 114 121
-24.006966 -13.574330 48.032349 25 30 31
-24.006882 -13.576967 48.032185 124 141 147
-24.006882 -13.576967 48.032185 124 141 147
-24.007030 -13.574554 48.032486 90 99 103
-24.006899 -13.576904 48.032234 159 167 174
-24.006845 -13.576940 48.032127 219 229 241
-24.006878 -13.576902 48.032188 234 244 250
-24.006939 -13.577770 48.032330 111 123 130
-24.006914 -13.577638 48.032284 94 106 118
-24.006865 -13.576880 48.032185 135 141 148
-24.006989 -13.574577 48.032444 78 82 87
-24.006771 -13.576561 48.032001 157 168 177
-24.006947 -13.577830 48.032375 249 254 255
-24.006927 -13.577806 48.032360 144 151 155
-24.006805 -13.576536 48.032135 240 249 253
-24.006809 -13.576926 48.032162 236 246 253
-24.006632 -13.575798 48.031822 240 250 255
-24.006907 -13.576930 48.032372 146 152 160
-24.006592 -13.575324 48.031746 238 246 254
-24.006781 -13.576933 48.032131 150 167 172
-24.006857 -13.576915 48.032288 242 252 255
-24.006788 -13.575324 48.032192 230 238 245
-24.007036 -13.576810 48.032696 149 162 171
-24.006769 -13.575170 48.032181 208 216 223
-24.006697 -13.574120 48.032047 89 103 116
-24.006794 -13.575303 48.032246 183 193 200
-24.007055 -13.576958 48.032772 199 211 217
-24.006857 -13.576805 48.032375 177 189 196
-24.006826 -13.576924 48.032337 203 215 227
-24.007074 -13.576848 48.032833 173 185 192
-24.007025 -13.576863 48.032757 154 165 174
-24.007063 -13.576950 48.032841 99 108 112
-24.007010 -13.576815 48.032738 134 148 155
-24.006779 -13.575330 48.032284 197 205 213
-24.006779 -13.575330 48.032284 197 205 213
-24.006777 -13.576928 48.032280 189 195 202
-24.006779 -13.575360 48.032291 248 254 255
-24.006779 -13.575360 48.032291 248 254 255
-24.006765 -13.575343 48.032280 130 138 146
-24.006735 -13.575328 48.032246 209 217 225
-24.006735 -13.575328 48.032246 209 217 225
-24.006777 -13.575339 48.032341 113 124 133
-24.006796 -13.577677 48.032383 147 159 166
-24.006727 -13.575335 48.032261 137 145 153
-24.007000 -13.576810 48.032822 238 248 254
-24.006733 -13.575372 48.032295 137 145 152
-24.006784 -13.575399 48.032398 137 145 152
-24.006744 -13.575346 48.032322 245 255 255
-24.006744 -13.575346 48.032322 245 255 255
-24.007015 -13.576852 48.032860 246 252 255
-24.006765 -13.574510 48.032368 19 21 20
-24.006603 -13.575347 48.032051 126 139 148
-24.006947 -13.576725 48.032742 237 245 253
-24.006931 -13.576953 48.032711 72 73 74
-24.006758 -13.575392 48.032379 244 250 255
-24.006706 -13.574691 48.032284 109 123 130
-24.006950 -13.576759 48.032776 246 255 255
-24.006966 -13.576858 48.032829 252 255 255
-24.006472 -13.573374 48.031857 227 239 246
-24.006742 -13.575404 48.032398 122 130 137
-24.006779 -13.574706 48.032490 20 21 22
-24.006702 -13.575346 48.032349 246 251 255
-24.006618 -13.576535 48.032188 193 201 208
-24.006662 -13.575356 48.032276 129 136 140
-24.006641 -13.575293 48.032246 207 215 223
-24.006680 -13.575311 48.032345 221 229 236
-24.006565 -13.574157 48.032120 233 243 250
-24.006609 -13.574204 48.032211 182 194 201
-24.006681 -13.575340 48.032352 133 143 150
-24.006666 -13.575355 48.032326 230 238 245
-24.006666 -13.575355 48.032326 230 238 245
-24.006668 -13.575302 48.032352 227 235 243
-24.006939 -13.576850 48.032913 205 214 218
-24.006927 -13.576853 48.032894 230 237 241
-24.006708 -13.577792 48.032467 224 236 248
-24.006626 -13.575005 48.032310 89 106 112
-24.006674 -13.575284 48.032421 122 136 143
-24.006987 -13.576871 48.033047 69 78 82
-24.006769 -13.577486 48.032616 141 158 163
-24.006632 -13.575246 48.032349 193 206 215
-24.006363 -13.573380 48.031826 60 65 68
-24.006914 -13.576844 48.032928 218 230 236
-24.006645 -13.575288 48.032406 247 254 255
-24.006645 -13.575288 48.032406 247 254 255
-24.006638 -13.575253 48.032394 189 205 213
-24.006575 -13.574725 48.032276 75 85 97
-24.006956 -13.576850 48.033043 131 143 144
-24.006649 -13.575279 48.032433 142 156 163
-24.006760 -13.577638 48.032654 91 108 114
-24.006350 -13.573503 48.031853 59 66 70
-24.006430 -13.575517 48.032013 239 249 255
-24.006353 -13.573504 48.031864 61 65 70
-24.006889 -13.576898 48.032940 233 242 246
-24.006506 -13.574302 48.032188 107 117 123
-24.006353 -13.573586 48.031887 230 238 246
-24.006353 -13.573586 48.031887 230 238 246
-24.006531 -13.574594 48.032265 21 23 22
-24.006880 -13.576839 48.032974 233 243 249
-24.006582 -13.575167 48.032387 195 207 214
-24.006487 -13.574412 48.032242 210 224 231
-24.006836 -13.576814 48.032936 101 112 115
-24.006723 -13.577724 48.032722 66 65 67
-24.006477 -13.574361 48.032238 103 109 122
-24.006847 -13.576811 48.032990 146 156 162
-24.006836 -13.576859 48.032982 231 239 247
-24.006546 -13.575175 48.032402 222 234 240
-24.006714 -13.577633 48.032745 122 139 145
-24.006424 -13.574495 48.032204 26 26 26
-24.006792 -13.576877 48.032936 225 233 240
-24.006517 -13.575196 48.032398 187 196 205
-24.006842 -13.576941 48.033062 72 71 73
-24.006710 -13.577641 48.032806 131 138 142
-24.006561 -13.575344 48.032513 197 209 216
-24.006561 -13.575344 48.032513 197 209 216
-24.006575 -13.574756 48.032555 31 32 33
-24.006804 -13.576885 48.033016 231 241 247
-24.006590 -13.575611 48.032589 168 176 183
-24.006512 -13.575583 48.032444 168 176 183
-24.006794 -13.576823 48.033020 49 58 62
-24.006790 -13.576838 48.033012 230 240 247
-24.006790 -13.576838 48.033012 230 240 247
-24.006529 -13.575250 48.032494 146 158 165
-24.006645 -13.577634 48.032726 236 237 245
-24.006542 -13.575377 48.032528 205 219 226
-24.006247 -13.573666 48.031948 55 60 61
-24.006731 -13.576774 48.032913 32 47 50
-24.006577 -13.575646 48.032612 246 252 255
-24.006577 -13.575646 48.032612 246 252 255
-24.006382 -13.574420 48.032230 97 108 117
-24.006662 -13.577622 48.032787 106 114 121
-24.006508 -13.574953 48.032486 74 86 93
-24.006506 -13.575203 48.032482 214 228 235
-24.006681 -13.577064 48.032829 109 125 133
-24.006739 -13.576766 48.032948 94 106 112
-24.006491 -13.574918 48.032467 148 158 164
-24.006359 -13.574492 48.032200 108 118 125
-24.006514 -13.575239 48.032513 155 167 174
-24.006582 -13.577170 48.032650 121 138 144
-24.006489 -13.574718 48.032467 209 219 225
-24.006460 -13.575273 48.032410 146 157 166
-24.006577 -13.575706 48.032654 244 250 255
-24.006620 -13.577167 48.032742 130 147 155
-24.006668 -13.577591 48.032833 128 144 152
-24.006470 -13.575230 48.032444 223 234 243
-24.006483 -13.575216 48.032471 222 232 239
-24.006479 -13.574752 48.032467 140 148 155
-24.006409 -13.574642 48.032326 57 65 73
-24.006502 -13.574995 48.032524 76 90 97
-24.006580 -13.575708 48.032684 240 250 255
-24.006674 -13.576828 48.032875 70 88 94
-24.006571 -13.577222 48.032669 151 158 162
-24.006584 -13.577146 48.032707 49 67 73
-24.006489 -13.575286 48.032520 160 165 180
-24.006489 -13.575286 48.032520 160 165 180
-24.006489 -13.575225 48.032520 148 163 174
-24.006451 -13.575076 48.032452 92 103 112
-24.006607 -13.577602 48.032761 203 211 213
-24.006578 -13.577569 48.032707 69 81 88
-24.006311 -13.574566 48.032177 216 232 240
-24.006311 -13.574566 48.032177 216 232 240
-24.006573 -13.575709 48.032707 247 253 255
-24.006573 -13.575709 48.032707 247 253 255
-24.006485 -13.575262 48.032543 224 236 248
-24.006500 -13.575050 48.032585 138 148 155
-24.006441 -13.575126 48.032478 102 118 126
-24.006550 -13.577219 48.032688 232 242 249
-24.006359 -13.575737 48.032326 208 218 225
-24.006310 -13.574545 48.032234 98 107 116
-24.006536 -13.575701 48.032688 243 251 255
-24.006472 -13.575327 48.032562 154 161 165
-24.006481 -13.575391 48.032597 248 255 255
-24.006567 -13.577208 48.032776 101 115 122
-24.006418 -13.575830 48.032478 246 253 255
-24.006474 -13.575273 48.032593 247 253 255
-24.006660 -13.576896 48.032967 92 109 117
-24.006536 -13.575706 48.032719 191 199 206
-24.006477 -13.575372 48.032604 162 168 176
-24.006477 -13.575372 48.032604 162 168 176
-24.006523 -13.577256 48.032696 164 172 179
-24.006477 -13.575047 48.032612 111 121 128
-24.006485 -13.575351 48.032631 250 255 255
-24.006485 -13.575351 48.032631 250 255 255
-24.006498 -13.575546 48.032658 246 252 255
-24.006626 -13.576891 48.032913 31 48 54
-24.006483 -13.575380 48.032627 169 175 183
-24.006571 -13.575721 48.032810 250 253 255
-24.006571 -13.575721 48.032810 250 253 255
-24.006527 -13.577237 48.032726 212 227 230
-24.006504 -13.575531 48.032684 249 252 255
-24.006504 -13.575531 48.032684 249 252 255
-24.006447 -13.575122 48.032589 147 161 167
-24.006447 -13.575245 48.032593 209 219 231
-24.006517 -13.575658 48.032742 222 230 242
-24.006517 -13.575658 48.032742 222 230 242
-24.006456 -13.575179 48.032631 102 113 122
-24.006376 -13.575460 48.032471 249 253 255
-24.006491 -13.575710 48.032707 190 198 205
-24.006456 -13.575163 48.032642 160 170 177
-24.006435 -13.575274 48.032600 214 227 236
-24.006441 -13.575128 48.032623 96 110 117
-24.006542 -13.575736 48.032833 252 254 255
-24.006514 -13.577157 48.032784 103 120 126
-24.006491 -13.575717 48.032742 223 226 234
-24.006544 -13.575747 48.032864 238 244 252
-24.006441 -13.575139 48.032665 201 209 221
-24.006454 -13.575506 48.032692 241 248 252
-24.006496 -13.575797 48.032776 248 254 255
-24.006521 -13.577170 48.032822 205 219 226
-24.006496 -13.577265 48.032772 157 171 184
-24.006422 -13.575323 48.032635 210 227 233
-24.006495 -13.577190 48.032776 114 125 134
-24.006493 -13.575747 48.032776 239 249 255
-24.006491 -13.577202 48.032776 243 254 255
-24.006435 -13.575128 48.032669 210 225 236
-24.006386 -13.575988 48.032578 103 120 126
-24.006475 -13.577139 48.032753 235 247 254
-24.006472 -13.575656 48.032753 232 241 250
-24.006472 -13.575656 48.032753 232 241 250
-24.006378 -13.575028 48.032566 176 183 193
-24.006453 -13.575594 48.032715 243 253 255
-24.006300 -13.574554 48.032413 25 25 25
-24.006481 -13.575759 48.032776 234 245 254
-24.006470 -13.577124 48.032753 123 136 145
-24.006462 -13.575284 48.032742 69 82 91
-24.006447 -13.575515 48.032715 177 180 188
-24.006447 -13.575515 48.032715 177 180 188
-24.006432 -13.575467 48.032688 210 221 230
-24.006401 -13.575335 48.032627 111 123 135
-24.006535 -13.577199 48.032890 174 184 191
-24.006416 -13.575522 48.032661 172 183 192
-24.006416 -13.575358 48.032658 216 229 238
-24.006433 -13.575123 48.032700 135 150 161
-24.006495 -13.577198 48.032818 245 255 255
-24.006439 -13.575503 48.032715 246 254 255
-24.006470 -13.577128 48.032787 239 251 255
-24.006405 -13.575058 48.032665 79 93 99
-24.006456 -13.575637 48.032764 246 249 255
-24.006456 -13.575637 48.032764 246 249 255
-24.006428 -13.575121 48.032715 183 195 207
-24.006645 -13.576728 48.033154 51 68 74
-24.006491 -13.575835 48.032852 240 248 255
-24.006062 -13.573609 48.032005 226 236 242
-24.006426 -13.575524 48.032734 231 241 248
-24.006451 -13.577113 48.032780 216 230 237
-24.006441 -13.575574 48.032764 245 255 255
-24.006441 -13.575574 48.032764 245 255 255
-24.006451 -13.577136 48.032787 172 184 191
-24.006432 -13.575536 48.032753 235 245 252
-24.006466 -13.575361 48.032822 82 96 103
-24.006426 -13.575435 48.032753 199 215 223
-24.006403 -13.575409 48.032703 103 119 127
-24.006380 -13.575105 48.032665 107 121 128
-24.006523 -13.576043 48.032963 196 204 211
-24.006418 -13.575535 48.032753 178 188 200
-24.006441 -13.577126 48.032799 170 182 188
-24.006403 -13.575074 48.032726 152 162 168
-24.006426 -13.575367 48.032772 62 76 83
-24.006426 -13.575367 48.032772 62 76 83
-24.006401 -13.575446 48.032730 222 238 246
-24.006439 -13.575526 48.032806 224 234 246
-24.006411 -13.575176 48.032745 173 182 191
-24.006405 -13.575521 48.032738 199 211 223
-24.006472 -13.575818 48.032879 239 247 255
-24.006502 -13.576033 48.032940 119 127 134
-24.006502 -13.576033 48.032940 119 127 134
-24.006422 -13.575367 48.032791 154 166 172
-24.006422 -13.575703 48.032799 246 252 255
-24.006422 -13.575703 48.032799 246 252 255
-24.006416 -13.575395 48.032791 70 82 89
-24.006401 -13.577099 48.032753 160 164 169
-24.006535 -13.576070 48.033028 120 132 138
-24.006527 -13.576056 48.033016 193 203 209
-24.006386 -13.575143 48.032734 215 225 237
-24.006392 -13.575132 48.032753 108 119 128
-24.006401 -13.575317 48.032772 221 230 234
-24.006510 -13.576043 48.032993 143 151 158
-24.006397 -13.575166 48.032768 210 219 228
-24.006399 -13.575396 48.032784 159 170 179
-24.006409 -13.575003 48.032803 34 37 34
-24.006397 -13.575089 48.032780 139 150 153
-24.006445 -13.577093 48.032875 210 224 231
-24.006422 -13.577107 48.032829 121 128 132
-24.006399 -13.575514 48.032791 235 248 255
-24.006338 -13.574527 48.032677 229 236 240
-24.006502 -13.576022 48.033009 210 220 232
-24.006512 -13.576055 48.033028 205 213 221
-24.006313 -13.575122 48.032635 167 179 191
-24.006397 -13.577102 48.032803 252 254 255
-24.006376 -13.575146 48.032768 214 228 241
-24.006454 -13.576034 48.032925 107 117 124
-24.006454 -13.576015 48.032928 156 165 174
-24.006413 -13.575726 48.032848 245 255 255
-24.006413 -13.575726 48.032848 245 255 255
-24.006395 -13.577117 48.032814 249 253 255
-24.006365 -13.577023 48.032757 94 108 114
-24.006369 -13.575119 48.032772 103 116 125
-24.006472 -13.576036 48.032974 190 199 208
-24.006380 -13.577045 48.032799 218 235 241
-24.006395 -13.575175 48.032837 141 151 163
-24.006405 -13.575699 48.032860 235 246 255
-24.006384 -13.575544 48.032814 96 106 118
-24.006330 -13.574000 48.032711 99 111 118
-24.006393 -13.575550 48.032837 96 106 118
-24.006382 -13.575233 48.032818 207 219 226
-24.006403 -13.575582 48.032852 228 240 252
-24.006351 -13.575136 48.032764 199 209 221
-24.006393 -13.577356 48.032845 229 244 255
-24.006506 -13.576082 48.033077 132 144 151
-24.006422 -13.575460 48.032921 217 226 230
-24.006466 -13.576049 48.033012 108 120 127
-24.006390 -13.576474 48.032860 229 239 246
-24.006340 -13.575084 48.032768 107 119 126
-24.006357 -13.575143 48.032803 203 214 223
-24.006378 -13.577033 48.032845 238 255 255
-24.006386 -13.577024 48.032860 89 106 111
-24.006332 -13.575146 48.032757 141 150 159
-24.006405 -13.575830 48.032921 245 255 255
-24.006386 -13.577050 48.032883 171 185 192
-24.006386 -13.577050 48.032883 171 185 192
-24.006401 -13.575171 48.032925 196 213 219
-24.006367 -13.575647 48.032864 245 255 255
-24.006353 -13.577008 48.032841 226 239 248
-24.006369 -13.577004 48.032864 102 119 127
-24.006540 -13.576253 48.033218 121 133 140
-24.006319 -13.575082 48.032780 65 75 82
-24.006601 -13.576828 48.033344 42 59 65
-24.006378 -13.575662 48.032925 104 111 121
-24.006418 -13.575881 48.033009 243 255 255
-24.006344 -13.575135 48.032860 167 183 191
-24.006491 -13.576316 48.033157 133 148 159
-24.006353 -13.575317 48.032887 205 217 224
-24.006424 -13.577683 48.033028 70 67 69
-24.006498 -13.576380 48.033184 85 102 110
-24.006334 -13.577197 48.032852 248 254 255
-24.006344 -13.575249 48.032875 198 204 211
-24.006353 -13.577228 48.032894 196 207 221
-24.006353 -13.577228 48.032894 196 207 221
-24.006495 -13.576303 48.033180 78 89 98
-24.006363 -13.574257 48.032925 186 196 202
-24.006365 -13.577448 48.032928 170 180 187
-24.006336 -13.575331 48.032871 191 200 209
-24.006361 -13.575402 48.032925 165 174 183
-24.006361 -13.575402 48.032925 165 174 183
-24.006189 -13.576365 48.032581 198 212 219
-24.006302 -13.575127 48.032810 130 141 150
-24.006336 -13.575063 48.032883 94 103 107
-24.006325 -13.575226 48.032856 139 152 155
-24.006325 -13.575226 48.032856 139 152 155
-24.006348 -13.575327 48.032909 144 152 160
-24.006319 -13.575250 48.032860 110 118 125
-24.006365 -13.575872 48.032955 246 252 255
-24.006361 -13.575798 48.032951 249 252 255
-24.006348 -13.575025 48.032928 104 107 108
-24.006350 -13.574985 48.032928 90 95 96
-24.006384 -13.575887 48.033001 240 246 254
-24.006416 -13.574715 48.033073 114 117 120
-24.006390 -13.574902 48.033020 108 111 114
-24.006388 -13.574778 48.033016 95 100 103
-24.006493 -13.576287 48.033222 86 99 108
-24.006437 -13.576048 48.033119 148 159 168
-24.006325 -13.575400 48.032898 202 211 220
-24.006296 -13.575363 48.032845 133 143 150
-24.006317 -13.576977 48.032887 209 221 227
-24.006447 -13.576318 48.033146 77 93 101
-24.006413 -13.574811 48.033081 37 42 45
-24.006413 -13.574811 48.033081 37 42 45
-24.006355 -13.575758 48.032967 232 246 253
-24.006376 -13.575855 48.033016 247 250 255
-24.006409 -13.575885 48.033081 182 189 199
-24.006409 -13.577500 48.033081 167 181 188
-24.006310 -13.576984 48.032887 246 254 255
-24.006342 -13.577213 48.032951 239 254 255
-24.006323 -13.575025 48.032921 45 54 58
-24.006323 -13.575025 48.032921 45 54 58
-24.006323 -13.575025 48.032921 45 54 58
-24.006340 -13.575768 48.032959 222 237 248
-24.006296 -13.575274 48.032867 74 82 89
-24.006325 -13.575254 48.032928 122 128 136
-24.006348 -13.574827 48.032974 42 47 50
-24.006390 -13.575883 48.033062 246 253 255
-24.006346 -13.575429 48.032970 143 149 157
-24.006330 -13.575384 48.032948 202 212 219
-24.006302 -13.575165 48.032890 167 179 186
-24.006401 -13.575977 48.033100 242 254 255
-24.006401 -13.575977 48.033100 242 254 255
-24.006390 -13.576015 48.033081 210 220 227
-24.006365 -13.575500 48.033035 207 216 225
-24.006218 -13.575240 48.032742 134 144 150
-24.006298 -13.575043 48.032902 109 118 122
-24.006403 -13.574622 48.033112 163 173 180
-24.006403 -13.574531 48.033119 82 95 104
-24.006302 -13.575238 48.032913 161 169 177
-24.006493 -13.576336 48.033295 59 76 84
-24.006344 -13.577206 48.032997 242 254 255
-24.006330 -13.574884 48.032974 98 107 111
-24.006273 -13.575275 48.032860 147 157 163
-24.006451 -13.576253 48.033211 58 75 83
-24.006300 -13.575830 48.032913 177 184 194
-24.006182 -13.576434 48.032677 82 94 101
-24.006378 -13.576004 48.033073 245 254 255
-24.006327 -13.577437 48.032974 238 252 255
-24.006454 -13.576232 48.033234 137 154 159
-24.006329 -13.575501 48.032978 210 220 232
-24.006334 -13.575480 48.032997 144 154 161
-24.006334 -13.575408 48.032997 144 152 159
-24.006439 -13.576113 48.033207 108 120 127
-24.006346 -13.577428 48.033020 226 246 255
-24.006319 -13.575013 48.032967 123 130 134
-24.006321 -13.575826 48.032978 217 228 237
-24.006290 -13.575230 48.032925 95 105 112
-24.006493 -13.574254 48.033329 110 109 111
-24.006285 -13.575282 48.032913 89 99 106
-24.006315 -13.575383 48.032974 187 195 202
-24.006315 -13.575383 48.032974 187 195 202
-24.006355 -13.575650 48.033054 220 227 237
-24.006382 -13.575929 48.033108 240 251 255
-24.006281 -13.575440 48.032909 188 194 202
-24.006350 -13.575707 48.033051 147 153 161
-24.006374 -13.576037 48.033096 134 146 153
-24.006325 -13.575483 48.033009 173 183 190
-24.006361 -13.575770 48.033081 72 84 90
-24.006350 -13.575866 48.033058 172 181 190
-24.006336 -13.574962 48.033031 60 68 75
-24.006319 -13.575536 48.033009 158 170 177
-24.006330 -13.575839 48.033035 70 78 85
-24.006332 -13.575841 48.033043 70 78 85
-24.006308 -13.575494 48.033001 122 130 137
-24.006329 -13.577483 48.033039 241 253 255
-24.006287 -13.577168 48.032967 236 253 255
-24.006306 -13.575548 48.033005 196 207 216
-24.006399 -13.576071 48.033195 208 216 228
-24.006277 -13.575233 48.032959 145 157 163
-24.006277 -13.575233 48.032959 145 157 163
-24.006289 -13.575287 48.032986 161 171 178
-24.006289 -13.575287 48.032986 161 171 178
-24.006304 -13.575337 48.033020 97 109 116
-24.006304 -13.575399 48.033024 130 144 151
-24.006300 -13.577221 48.033009 194 205 214
-24.006300 -13.575625 48.033016 225 235 242
-24.006260 -13.575752 48.032936 217 226 235
-24.006298 -13.575419 48.033028 170 184 191
-24.006266 -13.577125 48.032963 237 252 255
-24.006311 -13.575608 48.033058 190 202 209
-24.006279 -13.577224 48.032993 243 253 255
-24.006296 -13.577293 48.033028 241 252 255
-24.006378 -13.576073 48.033195 111 120 129
-24.006302 -13.575385 48.033047 161 173 180
-24.006311 -13.575448 48.033062 104 116 122
-24.006289 -13.577309 48.033016 234 249 255
-24.006294 -13.575366 48.033031 103 115 122
-24.006271 -13.577206 48.032982 243 253 255
-24.006271 -13.577206 48.032982 243 253 255
-24.006306 -13.575626 48.033062 133 145 152
-24.006338 -13.577563 48.033123 171 183 189
-24.006296 -13.575650 48.033039 159 170 179
-24.006290 -13.575475 48.033031 96 106 112
-24.006355 -13.576056 48.033165 126 135 144
-24.006300 -13.575562 48.033054 194 202 209
-24.006313 -13.575433 48.033081 87 101 108
-24.006359 -13.576231 48.033173 51 68 74
-24.006323 -13.576027 48.033108 174 183 192
-24.006296 -13.575398 48.033058 84 94 101
-24.006351 -13.576021 48.033173 206 215 224
-24.006296 -13.575644 48.033062 197 211 217
-24.006262 -13.577167 48.032997 240 252 255
-24.006296 -13.575720 48.033073 205 217 224
-24.006298 -13.575600 48.033081 189 197 204
-24.006334 -13.575905 48.033154 156 168 180
-24.006277 -13.575658 48.033039 205 213 221
-24.006277 -13.575658 48.033039 205 213 221
-24.006294 -13.575396 48.033073 136 148 155
-24.006315 -13.575626 48.033115 130 138 145
-24.006306 -13.575915 48.033096 234 246 255
-24.006248 -13.577193 48.032986 226 240 253
-24.006290 -13.575540 48.033081 182 195 204
-24.006262 -13.577168 48.033024 199 210 224
-24.006306 -13.575493 48.033112 153 167 173
-24.006269 -13.577321 48.033043 235 250 255
-24.006330 -13.575700 48.033165 148 158 165
-24.006269 -13.575429 48.033051 151 165 172
-24.006306 -13.575723 48.033119 110 120 126
-24.006466 -13.574489 48.033447 20 22 21
-24.006466 -13.574489 48.033447 20 22 21
-24.006245 -13.577143 48.033001 246 252 255
-24.006285 -13.577344 48.033081 186 201 212
-24.006308 -13.575645 48.033134 189 199 205
-24.006325 -13.576027 48.033169 190 201 210
-24.006269 -13.577346 48.033054 232 244 255
-24.006266 -13.575497 48.033062 124 137 146
-24.006313 -13.575753 48.033154 187 197 203
-24.006275 -13.575749 48.033085 186 196 203
-24.006290 -13.575658 48.033119 185 195 201
-24.006306 -13.575732 48.033150 204 214 220
-24.006231 -13.577141 48.033001 245 251 255
-24.006231 -13.577141 48.033001 245 251 255
-24.006298 -13.575646 48.033138 120 128 136
-24.006298 -13.575646 48.033138 120 128 136
-24.006290 -13.575713 48.033131 209 217 225
-24.006290 -13.575713 48.033131 209 217 225
-24.006361 -13.576042 48.033264 139 149 156
-24.006268 -13.577262 48.033081 231 248 255
-24.006292 -13.575615 48.033142 139 149 155
-24.006310 -13.575901 48.033180 234 244 251
-24.006332 -13.576024 48.033226 203 211 219
-24.006271 -13.577408 48.033100 232 249 255
-24.006294 -13.575830 48.033154 148 158 165
-24.006294 -13.575830 48.033154 148 158 165
-24.006287 -13.575444 48.033142 130 144 151
-24.006218 -13.575893 48.033012 192 201 210
-24.006268 -13.575575 48.033115 112 124 131
-24.006268 -13.575575 48.033115 112 124 131
-24.006302 -13.575997 48.033184 202 211 220
-24.006321 -13.576031 48.033222 192 202 209
-24.006281 -13.575679 48.033146 136 146 153
-24.006294 -13.575901 48.033173 138 146 154
-24.006281 -13.576022 48.033146 116 128 135
-24.006409 -13.574577 48.033405 22 22 22
-24.006367 -13.574529 48.033321 16 16 16
-24.006224 -13.575657 48.033035 184 194 201
-24.006285 -13.575790 48.033157 130 140 147
-24.006306 -13.575842 48.033199 203 213 220
-24.006208 -13.577091 48.033009 241 253 255
-24.006250 -13.575427 48.033100 54 68 75
-24.006353 -13.575998 48.033306 131 141 153
-24.006294 -13.575894 48.033192 194 204 210
-24.006275 -13.575962 48.033154 210 220 232
-24.006256 -13.575538 48.033119 88 100 107
-24.006256 -13.575538 48.033119 88 100 107
-24.006243 -13.575679 48.033092 122 136 143
-24.006243 -13.575679 48.033092 122 136 143
-24.006203 -13.577118 48.033012 234 254 255
-24.006294 -13.575831 48.033207 180 188 196
-24.006222 -13.577309 48.033062 236 251 255
-24.006313 -13.576017 48.033245 180 192 199
-24.006283 -13.575915 48.033184 183 190 200
-24.006256 -13.575349 48.033134 110 120 126
-24.006289 -13.575907 48.033199 122 130 138
-24.006260 -13.574781 48.033146 84 96 97
-24.006351 -13.576107 48.033333 129 141 148
-24.006275 -13.575889 48.033184 188 198 204
-24.006218 -13.577299 48.033070 192 206 221
-24.006332 -13.574518 48.033302 187 202 205
-24.006302 -13.576043 48.033241 76 88 94
-24.006378 -13.576387 48.033394 66 83 91
-24.006250 -13.575719 48.033142 174 188 195
-24.006189 -13.577106 48.033020 236 252 255
-24.006227 -13.577425 48.033100 243 254 255
-24.006311 -13.574471 48.033276 99 102 105
-24.006207 -13.577246 48.033062 239 253 255
-24.006260 -13.575718 48.033173 181 195 202
-24.006084 -13.574139 48.032825 72 87 100
-24.006258 -13.577579 48.033169 243 253 255
-24.006283 -13.575881 48.033218 147 155 163
-24.006262 -13.575667 48.033184 89 101 108
-24.006191 -13.576825 48.033043 197 213 221
-24.006336 -13.574520 48.033340 63 76 85
-24.006222 -13.577314 48.033108 235 250 255
-24.006258 -13.575723 48.033192 104 116 123
-24.006220 -13.573948 48.033119 38 38 38
-24.006113 -13.574209 48.032913 231 243 255
-24.006113 -13.574209 48.032913 231 243 255
-24.006147 -13.576778 48.032974 90 102 109
-24.006325 -13.574536 48.033340 178 189 198
-24.006250 -13.575737 48.033184 78 90 96
-24.006203 -13.577233 48.033096 236 247 255
-24.006203 -13.577233 48.033096 236 247 255
-24.006275 -13.576022 48.033249 185 195 202
-24.006159 -13.576797 48.033020 212 225 234
-24.006279 -13.575758 48.033264 143 155 161
-24.006134 -13.577139 48.032970 249 252 255
-24.006134 -13.577139 48.032970 249 252 255
-24.006289 -13.576019 48.033283 97 105 113
-24.006289 -13.576019 48.033283 97 105 113
-24.006189 -13.576985 48.033085 238 251 255
-24.006189 -13.576985 48.033085 238 251 255
-24.006256 -13.575772 48.033222 97 107 113
-24.006304 -13.575719 48.033321 95 109 116
-24.006308 -13.576079 48.033329 130 140 147
-24.006262 -13.575862 48.033241 118 128 134
-24.006237 -13.575817 48.033195 126 138 145
-24.006151 -13.577144 48.033020 245 252 255
-24.006084 -13.574129 48.032906 83 95 101
-24.006123 -13.576893 48.032978 246 254 255
-24.006269 -13.575977 48.033272 157 165 172
-24.006340 -13.576200 48.033417 118 135 141
-24.006178 -13.577128 48.033089 193 204 218
-24.006306 -13.574542 48.033356 162 180 191
-24.006260 -13.575946 48.033257 162 172 179
-24.006231 -13.575764 48.033203 145 155 162
-24.006304 -13.576200 48.033348 44 60 71
-24.006304 -13.576200 48.033348 44 60 71
-24.006254 -13.575833 48.033257 162 171 180
-24.006268 -13.576015 48.033287 149 157 164
-24.006317 -13.574605 48.033390 185 190 191
-24.006245 -13.575847 48.033241 165 175 182
-24.006197 -13.577298 48.033146 236 247 255
-24.006197 -13.577298 48.033146 236 247 255
-24.006109 -13.576759 48.032986 204 213 222
-24.006233 -13.575814 48.033234 94 103 112
-24.006237 -13.575839 48.033245 79 91 98
-24.006184 -13.577477 48.033142 239 251 255
-24.006256 -13.577529 48.033287 187 198 212
-24.006273 -13.574537 48.033333 226 242 250
-24.006243 -13.575977 48.033272 158 168 174
-24.006201 -13.577466 48.033188 239 253 255
-24.006340 -13.574499 48.033478 23 24 27
-24.006250 -13.576104 48.033291 47 59 65
-24.006189 -13.577503 48.033176 240 252 255
-24.006191 -13.574838 48.033184 238 253 255
-24.006212 -13.577458 48.033222 245 254 255
-24.006170 -13.577327 48.033142 230 245 255
-24.006159 -13.577444 48.033134 189 200 214
-24.006115 -13.577119 48.033051 175 187 199
-24.006170 -13.577378 48.033169 194 205 219
-24.006233 -13.575959 48.033302 140 150 156
-24.006300 -13.574515 48.033436 26 30 35
-24.006304 -13.576138 48.033443 146 158 164
-24.006134 -13.577048 48.033108 233 250 255
-24.006134 -13.577048 48.033108 233 250 255
-24.006184 -13.574847 48.033222 220 235 248
-24.006222 -13.575965 48.033295 83 91 98
-24.006067 -13.576701 48.032986 72 84 91
-24.006254 -13.576105 48.033367 130 142 148
-24.006165 -13.577205 48.033184 235 247 255
-24.006147 -13.577237 48.033154 233 248 255
