ply
format ascii 1.0
element vertex 1208
property float x
property float y
property float z
property uchar red
property uchar green
property uchar blue
end_header
-0.648256 -0.367091 1.298460 56 57 58
-0.648251 -0.367098 1.298451 64 64 64
-0.648250 -0.367100 1.298449 115 117 116
-0.648260 -0.367087 1.298470 118 120 119
-0.648253 -0.367096 1.298457 122 123 124
-0.648255 -0.367094 1.298460 128 129 130
-0.648255 -0.367094 1.298460 128 129 130
-0.648255 -0.367094 1.298460 49 48 50
-0.648255 -0.367094 1.298460 120 119 121
-0.648257 -0.367092 1.298465 64 66 65
-0.648259 -0.367089 1.298470 44 45 46
-0.648253 -0.367097 1.298458 67 68 69
-0.648255 -0.367094 1.298462 51 52 53
-0.648255 -0.367094 1.298463 133 134 135
-0.648259 -0.367090 1.298470 105 106 107
-0.648273 -0.367072 1.298498 56 57 58
-0.648255 -0.367095 1.298463 140 140 140
-0.648276 -0.367068 1.298505 112 113 114
-0.648260 -0.367088 1.298474 59 62 63
-0.648259 -0.367090 1.298472 48 49 50
-0.648261 -0.367088 1.298476 56 58 57
-0.648260 -0.367089 1.298475 111 114 115
-0.648263 -0.367086 1.298480 110 112 111
-0.648253 -0.367098 1.298461 68 69 70
-0.648253 -0.367099 1.298461 110 109 111
-0.648263 -0.367086 1.298482 119 121 120
-0.648258 -0.367092 1.298473 41 43 42
-0.648258 -0.367092 1.298473 41 43 42
-0.648249 -0.367103 1.298455 64 64 64
-0.648252 -0.367101 1.298461 116 118 117
-0.648254 -0.367098 1.298464 116 118 117
-0.648256 -0.367095 1.298470 126 125 127
-0.648254 -0.367099 1.298465 53 53 53
-0.648254 -0.367099 1.298465 53 53 53
-0.648257 -0.367095 1.298472 52 53 54
-0.648257 -0.367095 1.298472 52 53 54
-0.648261 -0.367089 1.298482 157 158 159
-0.648247 -0.367107 1.298453 126 127 125
-0.648255 -0.367098 1.298469 57 59 58
-0.648268 -0.367081 1.298495 53 55 54
-0.648262 -0.367088 1.298484 138 140 139
-0.648260 -0.367092 1.298479 40 42 41
-0.648267 -0.367083 1.298494 61 60 62
-0.648267 -0.367083 1.298494 61 60 62
-0.648248 -0.367107 1.298456 57 59 58
-0.648254 -0.367099 1.298469 114 116 115
-0.648251 -0.367105 1.298464 111 113 112
-0.648257 -0.367097 1.298478 132 134 133
-0.648259 -0.367095 1.298483 49 51 50
-0.648257 -0.367097 1.298480 115 116 117
-0.648250 -0.367107 1.298467 131 131 131
-0.648259 -0.367095 1.298486 96 98 97
-0.648260 -0.367094 1.298489 109 111 110
-0.648258 -0.367098 1.298485 59 60 61
-0.648251 -0.367107 1.298471 64 66 65
-0.648251 -0.367107 1.298471 64 66 65
-0.648272 -0.367082 1.298516 120 122 121
-0.648272 -0.367082 1.298517 50 52 51
-0.648260 -0.367097 1.298493 58 58 58
-0.648267 -0.367088 1.298509 57 57 57
-0.648252 -0.367107 1.298479 116 117 118
-0.648270 -0.367084 1.298515 114 113 115
-0.648248 -0.367113 1.298472 124 125 126
-0.648272 -0.367083 1.298520 42 43 44
-0.648255 -0.367105 1.298486 100 100 100
-0.648264 -0.367094 1.298507 109 111 110
-0.648265 -0.367093 1.298509 40 39 41
-0.648259 -0.367101 1.298500 104 105 106
-0.648263 -0.367097 1.298508 135 136 137
-0.648281 -0.367074 1.298545 118 117 119
-0.648260 -0.367102 1.298502 105 106 107
-0.648265 -0.367095 1.298513 52 54 53
-0.648258 -0.367105 1.298502 62 64 63
-0.648254 -0.367110 1.298497 108 110 109
-0.648262 -0.367101 1.298516 112 111 113
-0.648268 -0.367096 1.298532 95 97 96
-0.648253 -0.367116 1.298504 59 60 61
-0.648253 -0.367116 1.298504 123 124 125
-0.648271 -0.367093 1.298540 104 106 105
-0.648261 -0.367108 1.298527 113 115 114
-0.648265 -0.367106 1.298538 110 110 110
-0.648265 -0.367106 1.298538 110 110 110
-0.648257 -0.367116 1.298522 121 122 123
-0.648270 -0.367100 1.298552 51 51 51
-0.648270 -0.367100 1.298552 51 51 51
-0.648263 -0.367111 1.298541 47 49 48
-0.648250 -0.367129 1.298519 99 101 100
-0.648261 -0.367117 1.298547 40 41 42
-0.648261 -0.367120 1.298553 84 84 84
-0.648262 -0.367133 1.298590 129 129 129
-0.648256 -0.367145 1.298584 114 114 114
-1.306226 -0.734922 2.611955 99 101 100
-1.306237 -0.734923 2.611988 47 49 48
-1.306238 -0.734923 2.611991 126 125 127
-1.306244 -0.734911 2.612004 117 117 117
-1.306250 -0.734932 2.612031 103 105 104
-1.306240 -0.734964 2.612010 56 55 57
-1.306240 -0.734964 2.612010 56 55 57
-1.306260 -0.734909 2.612052 97 96 98
-1.306273 -0.734947 2.612106 99 98 100
-1.306271 -0.734960 2.612102 61 63 62
-1.306262 -0.734987 2.612086 111 113 112
-1.306274 -0.734961 2.612111 104 103 105
-1.306276 -0.734967 2.612122 45 46 47
-1.306282 -0.734963 2.612136 112 115 116
-1.306293 -0.734962 2.612170 58 60 59
-1.306285 -0.734990 2.612155 58 60 59
-1.306285 -0.734990 2.612155 58 60 59
-1.306292 -0.734968 2.612171 99 101 100
-1.306293 -0.734969 2.612174 57 59 58
-1.306296 -0.734991 2.612190 130 129 131
-1.306301 -0.734991 2.612203 68 67 69
-1.306311 -0.734981 2.612234 102 104 103
-1.306302 -0.735015 2.612215 65 66 67
-1.306307 -0.735012 2.612229 63 65 64
-1.306307 -0.735011 2.612230 100 102 101
-1.306314 -0.735006 2.612250 52 51 53
-1.306318 -0.735001 2.612261 105 105 105
-1.306314 -0.735033 2.612259 56 55 57
-1.306327 -0.735027 2.612296 60 61 62
-1.306337 -0.734998 2.612317 117 116 118
-1.306336 -0.735007 2.612315 127 129 128
-1.306337 -0.735004 2.612318 121 122 123
-1.306321 -0.735055 2.612288 54 55 56
-1.306340 -0.735020 2.612332 62 61 63
-1.306334 -0.735039 2.612324 57 57 57
-1.306333 -0.735053 2.612323 107 109 108
-1.306327 -0.735073 2.612311 114 115 116
-1.306341 -0.735034 2.612341 100 102 101
-1.306341 -0.735034 2.612341 100 102 101
-1.306339 -0.735050 2.612340 55 56 57
-1.306340 -0.735048 2.612345 114 116 115
-1.306340 -0.735051 2.612343 105 106 107
-1.306345 -0.735035 2.612355 59 61 60
-1.306347 -0.735031 2.612359 108 109 110
-1.306350 -0.735038 2.612370 137 138 139
-1.306355 -0.735028 2.612382 69 70 71
-1.306352 -0.735040 2.612378 120 121 122
-1.306346 -0.735060 2.612366 56 57 58
-1.306359 -0.735027 2.612392 59 61 60
-1.306349 -0.735057 2.612373 114 113 115
-1.306347 -0.735065 2.612369 123 125 124
-1.306341 -0.735085 2.612358 107 108 109
-1.306361 -0.735029 2.612400 64 65 66
-1.306355 -0.735048 2.612389 121 122 123
-1.306357 -0.735044 2.612395 60 61 62
-1.306360 -0.735039 2.612399 65 67 66
-1.306360 -0.735040 2.612401 111 113 112
-1.306363 -0.735048 2.612412 128 129 130
-1.306352 -0.735082 2.612393 111 112 113
-1.306365 -0.735046 2.612418 116 118 117
-1.306367 -0.735041 2.612422 144 145 146
-1.306351 -0.735089 2.612389 117 120 121
-1.306366 -0.735042 2.612422 63 64 65
-1.306367 -0.735042 2.612424 108 109 110
-1.306364 -0.735052 2.612419 66 65 67
-1.306364 -0.735056 2.612420 111 110 112
-1.306365 -0.735058 2.612421 60 62 61
-1.306356 -0.735082 2.612405 118 119 120
-1.306366 -0.735058 2.612425 136 138 137
-1.306355 -0.735093 2.612403 56 58 57
-1.306367 -0.735058 2.612428 63 65 64
-1.306367 -0.735058 2.612430 118 120 119
-1.306369 -0.735055 2.612434 67 68 69
-1.306375 -0.735060 2.612454 134 136 135
-1.306369 -0.735080 2.612443 54 56 55
-1.306376 -0.735060 2.612456 56 58 57
-1.306383 -0.735040 2.612470 106 107 108
-1.306382 -0.735049 2.612471 60 61 62
-1.306365 -0.735101 2.612437 74 75 76
-1.306370 -0.735087 2.612447 48 50 49
-1.306371 -0.735085 2.612451 68 68 68
-1.306366 -0.735101 2.612441 75 77 76
-1.306363 -0.735113 2.612436 60 62 61
-1.306372 -0.735088 2.612454 132 134 133
-1.306384 -0.735054 2.612479 65 67 66
-1.306384 -0.735054 2.612479 65 67 66
-1.306384 -0.735054 2.612480 138 140 139
-1.306384 -0.735054 2.612480 138 140 139
-1.306385 -0.735056 2.612483 62 64 63
-1.306386 -0.735060 2.612487 64 65 66
-1.306382 -0.735074 2.612480 124 126 125
-1.306377 -0.735092 2.612470 133 135 134
-1.306379 -0.735087 2.612474 118 120 119
-1.306369 -0.735116 2.612455 111 113 112
-1.306374 -0.735105 2.612465 119 118 120
-1.306374 -0.735106 2.612466 62 61 63
-1.306389 -0.735070 2.612501 127 128 129
-1.306391 -0.735068 2.612504 116 117 118
-1.306391 -0.735068 2.612504 116 117 118
-1.306391 -0.735068 2.612505 57 58 59
-1.306393 -0.735070 2.612512 111 112 113
-1.306393 -0.735078 2.612514 120 121 122
-1.306388 -0.735094 2.612503 145 149 148
-1.306400 -0.735058 2.612529 129 130 131
-1.306392 -0.735084 2.612514 56 57 58
-1.306399 -0.735064 2.612528 105 106 107
-1.306404 -0.735056 2.612540 113 115 114
-1.306395 -0.735083 2.612524 66 67 68
-1.306396 -0.735081 2.612525 47 48 49
-1.306385 -0.735113 2.612504 135 136 137
-1.306393 -0.735096 2.612521 141 141 141
-1.306401 -0.735075 2.612537 49 51 50
-1.306402 -0.735077 2.612542 56 55 57
-1.306400 -0.735085 2.612537 54 55 56
-1.306391 -0.735116 2.612523 61 62 63
-1.306403 -0.735083 2.612547 57 62 59
-1.306390 -0.735129 2.612524 108 109 110
-1.306399 -0.735105 2.612543 134 136 135
-1.306401 -0.735103 2.612546 62 62 62
-1.306401 -0.735103 2.612546 62 62 62
-1.306390 -0.735136 2.612525 125 126 127
-1.306398 -0.735112 2.612541 118 119 120
-1.306400 -0.735106 2.612546 64 66 65
-1.306401 -0.735104 2.612548 121 123 122
-1.306402 -0.735101 2.612551 62 63 64
-1.306413 -0.735070 2.612572 63 64 65
-1.306407 -0.735088 2.612560 63 64 65
-1.306403 -0.735100 2.612553 116 115 117
-1.306403 -0.735100 2.612552 79 78 80
-1.306399 -0.735112 2.612544 62 61 63
-1.306399 -0.735112 2.612544 62 61 63
-1.306414 -0.735070 2.612574 127 128 129
-1.306409 -0.735089 2.612565 68 69 70
-1.306415 -0.735072 2.612579 67 68 69
-1.306416 -0.735071 2.612582 54 58 57
-1.306401 -0.735121 2.612554 108 109 110
-1.306405 -0.735111 2.612561 115 116 117
-1.306413 -0.735087 2.612578 59 60 61
-1.306413 -0.735088 2.612577 135 136 137
-1.306407 -0.735105 2.612565 121 123 122
-1.306405 -0.735111 2.612563 54 55 56
-1.306414 -0.735089 2.612581 60 61 62
-1.306403 -0.735131 2.612563 132 133 134
-1.306411 -0.735108 2.612578 117 117 117
-1.306404 -0.735132 2.612566 68 69 70
-1.306415 -0.735099 2.612590 62 63 64
-1.306419 -0.735091 2.612599 129 131 130
-1.306424 -0.735084 2.612609 123 124 125
-1.306418 -0.735101 2.612598 126 127 128
-1.306421 -0.735093 2.612605 116 117 118
-1.306425 -0.735084 2.612615 65 66 67
-1.306423 -0.735092 2.612610 127 128 129
-1.306417 -0.735110 2.612600 57 56 58
-1.306422 -0.735100 2.612610 60 64 63
-1.306425 -0.735096 2.612618 51 53 52
-1.306413 -0.735138 2.612595 126 128 127
-1.306413 -0.735138 2.612595 126 128 127
-1.306419 -0.735120 2.612609 131 131 131
-1.306422 -0.735116 2.612615 124 125 126
-1.306419 -0.735133 2.612612 66 68 67
-1.306431 -0.735101 2.612637 115 117 116
-1.306430 -0.735102 2.612636 122 124 123
-1.306423 -0.735130 2.612624 63 65 64
-1.306424 -0.735131 2.612628 107 109 108
-1.306430 -0.735113 2.612639 120 121 122
-1.306422 -0.735142 2.612625 109 111 110
-1.306437 -0.735099 2.612657 51 52 53
-1.306434 -0.735110 2.612651 124 127 130
-1.306424 -0.735145 2.612631 67 71 70
-1.306434 -0.735115 2.612652 76 78 77
-1.306432 -0.735126 2.612649 124 125 126
-1.306432 -0.735133 2.612653 58 60 59
-1.306442 -0.735105 2.612672 53 54 55
-1.306436 -0.735123 2.612661 62 63 64
-1.306436 -0.735123 2.612661 62 63 64
-1.306439 -0.735116 2.612666 51 53 52
-1.306436 -0.735128 2.612662 73 75 74
-1.306445 -0.735099 2.612681 114 115 116
-1.306442 -0.735108 2.612675 69 70 71
-1.306445 -0.735103 2.612680 63 64 65
-1.306432 -0.735145 2.612656 57 59 58
-1.306440 -0.735122 2.612673 112 113 114
-1.306439 -0.735126 2.612670 127 128 129
-1.306440 -0.735132 2.612675 64 65 66
-1.306435 -0.735146 2.612666 45 46 47
-1.306430 -0.735163 2.612655 102 104 103
-1.306436 -0.735149 2.612669 100 102 101
-1.306455 -0.735094 2.612707 56 59 60
-1.306432 -0.735160 2.612663 124 126 125
-1.306440 -0.735140 2.612678 54 55 56
-1.306435 -0.735157 2.612668 105 106 107
-1.306434 -0.735160 2.612667 58 59 60
-1.306446 -0.735126 2.612692 57 58 59
-1.306444 -0.735132 2.612689 124 125 126
-1.306440 -0.735146 2.612679 63 65 64
-1.306442 -0.735141 2.612685 109 110 111
-1.306451 -0.735115 2.612705 61 62 63
-1.306434 -0.735176 2.612673 123 126 127
-1.306455 -0.735115 2.612714 56 57 58
-1.306452 -0.735129 2.612710 134 135 136
-1.306447 -0.735144 2.612701 111 112 113
-1.306453 -0.735137 2.612718 75 76 77
-1.306456 -0.735131 2.612724 66 67 68
-1.306451 -0.735145 2.612714 50 51 52
-1.306450 -0.735149 2.612713 114 115 116
-1.306447 -0.735159 2.612706 30 32 31
-1.306447 -0.735159 2.612706 30 32 31
-1.306459 -0.735123 2.612731 57 58 59
-1.306451 -0.735151 2.612715 67 69 68
-1.306451 -0.735151 2.612717 133 135 134
-1.306454 -0.735145 2.612722 66 67 68
-1.306456 -0.735142 2.612727 122 124 123
-1.306459 -0.735132 2.612734 44 45 46
-1.306456 -0.735147 2.612729 108 109 110
-1.306443 -0.735188 2.612705 128 129 130
-1.306453 -0.735162 2.612725 58 59 60
-1.306451 -0.735169 2.612722 122 123 124
-1.306452 -0.735165 2.612724 57 58 59
-1.306456 -0.735154 2.612733 100 101 102
-1.306454 -0.735167 2.612732 62 63 64
-1.306471 -0.735119 2.612765 121 122 123
-1.306456 -0.735166 2.612736 60 62 61
-1.306466 -0.735142 2.612758 51 52 53
-1.306462 -0.735155 2.612751 61 63 62
-1.306461 -0.735160 2.612749 110 111 112
-1.306466 -0.735148 2.612759 53 55 54
-1.306473 -0.735129 2.612774 58 60 59
-1.306472 -0.735131 2.612774 61 63 62
-1.306472 -0.735131 2.612773 116 117 118
-1.306460 -0.735171 2.612750 63 64 65
-1.306461 -0.735173 2.612753 52 54 53
-1.306457 -0.735184 2.612745 51 53 52
-1.306457 -0.735184 2.612745 51 53 52
-1.306471 -0.735147 2.612775 63 64 65
-1.306463 -0.735171 2.612760 106 108 107
-1.306473 -0.735144 2.612780 68 67 69
-1.306473 -0.735143 2.612781 115 114 116
-1.306460 -0.735182 2.612755 49 51 50
-1.306464 -0.735172 2.612764 61 63 62
-1.306476 -0.735139 2.612789 70 72 71
-1.306468 -0.735166 2.612773 56 57 58
-1.306477 -0.735142 2.612791 60 59 61
-1.306473 -0.735155 2.612783 64 66 65
-1.306479 -0.735137 2.612797 121 122 123
-1.306473 -0.735155 2.612785 116 117 118
-1.306481 -0.735135 2.612800 119 120 121
-1.306476 -0.735153 2.612793 66 68 67
-1.306476 -0.735153 2.612793 66 68 67
-1.306464 -0.735190 2.612769 124 125 126
-1.306457 -0.735214 2.612755 62 64 63
-1.306482 -0.735140 2.612805 110 111 112
-1.306470 -0.735179 2.612783 66 68 67
-1.306479 -0.735154 2.612801 130 131 132
-1.306471 -0.735178 2.612785 58 60 59
-1.306471 -0.735176 2.612787 51 52 53
-1.306483 -0.735142 2.612810 69 70 71
-1.306479 -0.735154 2.612803 56 55 57
-1.306489 -0.735128 2.612822 111 114 115
-1.306482 -0.735147 2.612809 127 126 128
-1.306471 -0.735181 2.612787 107 106 108
-1.306476 -0.735167 2.612799 70 71 72
-1.306473 -0.735177 2.612793 142 143 144
-1.306482 -0.735152 2.612810 59 60 61
-1.306473 -0.735181 2.612792 54 57 58
-1.306481 -0.735158 2.612809 109 111 110
-1.306473 -0.735183 2.612792 127 128 129
-1.306472 -0.735186 2.612791 60 61 62
-1.306473 -0.735183 2.612794 54 57 58
-1.306473 -0.735183 2.612794 54 57 58
-1.306479 -0.735167 2.612805 121 122 123
-1.306472 -0.735187 2.612793 108 110 109
-1.306476 -0.735177 2.612802 48 49 50
-1.306480 -0.735166 2.612809 109 110 111
-1.306479 -0.735168 2.612808 46 46 46
-1.306484 -0.735156 2.612817 122 123 124
-1.306478 -0.735173 2.612807 117 119 118
-1.306470 -0.735196 2.612791 100 101 102
-1.306476 -0.735179 2.612803 106 107 108
-1.306483 -0.735159 2.612817 109 110 111
-1.306487 -0.735148 2.612825 57 58 59
-1.306488 -0.735148 2.612827 125 124 126
-1.306476 -0.735186 2.612803 45 46 47
-1.306479 -0.735179 2.612809 51 53 52
-1.306491 -0.735143 2.612835 127 128 129
-1.306484 -0.735167 2.612823 59 60 61
-1.306481 -0.735179 2.612815 102 104 103
-1.306487 -0.735165 2.612831 61 62 63
-1.306473 -0.735208 2.612803 163 164 165
-1.306484 -0.735177 2.612824 55 58 59
-1.306492 -0.735152 2.612840 115 114 116
-1.306492 -0.735153 2.612840 65 66 67
-1.306487 -0.735169 2.612831 125 126 127
-1.306469 -0.735225 2.612798 63 65 64
-1.306483 -0.735185 2.612825 111 112 113
-1.306483 -0.735186 2.612825 148 149 150
-1.306490 -0.735165 2.612839 62 63 64
-1.306470 -0.735225 2.612800 111 113 112
-1.306493 -0.735157 2.612847 68 70 69
-1.306487 -0.735179 2.612835 58 59 60
-1.306487 -0.735179 2.612835 58 59 60
-1.306479 -0.735204 2.612818 75 76 77
-1.306482 -0.735194 2.612826 61 62 63
-1.306480 -0.735202 2.612821 57 58 59
-1.306480 -0.735201 2.612822 110 111 112
-1.306486 -0.735186 2.612833 59 61 60
-1.306483 -0.735195 2.612829 134 135 136
-1.306481 -0.735202 2.612824 62 63 64
-1.306478 -0.735211 2.612819 60 61 62
-1.306479 -0.735211 2.612821 133 134 135
-1.306469 -0.735241 2.612803 142 142 142
-1.306487 -0.735192 2.612839 70 72 71
-1.306483 -0.735203 2.612832 109 111 110
-1.306493 -0.735176 2.612851 56 58 57
-1.306481 -0.735212 2.612828 156 155 157
-1.306494 -0.735171 2.612855 62 63 64
-1.306493 -0.735176 2.612852 131 133 132
-1.306495 -0.735173 2.612857 53 54 55
-1.306506 -0.735139 2.612880 122 123 124
-1.306482 -0.735215 2.612832 134 138 137
-1.306482 -0.735215 2.612832 134 138 137
-1.306482 -0.735214 2.612833 60 64 63
-1.306494 -0.735181 2.612856 75 77 76
-1.306485 -0.735207 2.612840 120 121 122
-1.306501 -0.735161 2.612871 48 49 50
-1.306497 -0.735176 2.612865 55 56 57
-1.306496 -0.735179 2.612863 65 66 67
-1.306498 -0.735176 2.612866 119 120 121
-1.306490 -0.735201 2.612852 143 144 145
-1.306500 -0.735174 2.612872 69 70 71
-1.306485 -0.735216 2.612844 76 75 77
-1.306487 -0.735212 2.612848 65 66 67
-1.306487 -0.735216 2.612848 114 116 115
-1.306492 -0.735201 2.612859 76 75 77
-1.306492 -0.735202 2.612859 56 57 58
-1.306488 -0.735217 2.612850 78 80 79
-1.306495 -0.735196 2.612865 70 72 71
-1.306501 -0.735180 2.612877 70 71 72
-1.306491 -0.735208 2.612858 53 54 55
-1.306488 -0.735217 2.612853 132 133 134
-1.306505 -0.735170 2.612885 57 58 59
-1.306493 -0.735205 2.612862 71 73 72
-1.306510 -0.735154 2.612897 116 118 117
-1.306496 -0.735198 2.612869 126 127 128
-1.306500 -0.735186 2.612878 70 71 72
-1.306500 -0.735186 2.612878 70 71 72
-1.306500 -0.735186 2.612878 70 71 72
-1.306499 -0.735191 2.612875 116 117 118
-1.306495 -0.735202 2.612869 64 66 65
-1.306494 -0.735208 2.612866 105 107 106
-1.306498 -0.735196 2.612875 111 113 112
-1.306497 -0.735200 2.612874 131 132 133
-1.306507 -0.735170 2.612894 59 60 61
-1.306493 -0.735214 2.612865 65 66 67
-1.306496 -0.735204 2.612872 41 42 43
-1.306496 -0.735204 2.612872 41 42 43
-1.306499 -0.735196 2.612877 60 61 62
-1.306491 -0.735223 2.612861 115 116 117
-1.306489 -0.735230 2.612858 123 124 125
-1.306494 -0.735215 2.612869 128 128 128
-1.306515 -0.735155 2.612913 73 74 75
-1.306515 -0.735155 2.612913 73 74 75
-1.306501 -0.735198 2.612885 54 55 56
-1.306502 -0.735195 2.612887 56 58 57
-1.306515 -0.735156 2.612913 114 116 115
-1.306506 -0.735185 2.612894 122 124 123
-1.306506 -0.735185 2.612894 122 124 123
-1.306508 -0.735178 2.612899 50 52 51
-1.306500 -0.735201 2.612883 114 116 115
-1.306501 -0.735202 2.612884 68 70 69
-1.306517 -0.735156 2.612917 121 122 123
-1.306507 -0.735187 2.612898 63 65 64
-1.306504 -0.735195 2.612893 72 74 73
-1.306504 -0.735197 2.612893 131 133 132
-1.306507 -0.735188 2.612900 136 138 137
-1.306511 -0.735177 2.612908 49 50 51
-1.306505 -0.735196 2.612896 139 141 140
-1.306512 -0.735178 2.612910 102 103 104
-1.306507 -0.735196 2.612900 59 58 60
-1.306516 -0.735169 2.612920 138 139 140
-1.306507 -0.735198 2.612901 83 85 84
-1.306511 -0.735185 2.612910 66 67 68
-1.306507 -0.735196 2.612903 125 125 125
-1.306515 -0.735176 2.612919 116 117 118
-1.306506 -0.735203 2.612902 128 129 130
-1.306501 -0.735223 2.612892 56 57 58
-1.306504 -0.735216 2.612898 138 140 139
-1.306504 -0.735216 2.612898 60 62 61
-1.306509 -0.735203 2.612909 123 124 125
-1.306509 -0.735201 2.612910 113 115 114
-1.306514 -0.735187 2.612920 56 58 57
-1.306513 -0.735192 2.612920 128 129 130
-1.306514 -0.735190 2.612922 58 58 58
-1.306508 -0.735209 2.612910 68 70 69
-1.306511 -0.735202 2.612917 65 67 66
-1.306510 -0.735209 2.612915 47 48 49
-1.306504 -0.735225 2.612904 59 61 60
-1.306503 -0.735232 2.612903 127 129 128
-1.306511 -0.735209 2.612919 107 108 109
-1.306504 -0.735234 2.612906 119 121 120
-1.306498 -0.735253 2.612895 122 124 123
-1.306516 -0.735204 2.612932 64 63 65
-1.306509 -0.735226 2.612918 58 60 59
-1.306509 -0.735226 2.612920 120 122 121
-1.306504 -0.735244 2.612909 66 68 67
-1.306505 -0.735241 2.612911 107 109 108
-1.306519 -0.735198 2.612940 67 68 69
-1.306519 -0.735198 2.612940 67 68 69
-1.306516 -0.735207 2.612934 68 69 70
-1.306521 -0.735193 2.612944 72 73 74
-1.306508 -0.735236 2.612917 52 54 53
-1.306519 -0.735204 2.612942 55 57 56
-1.306512 -0.735228 2.612927 67 69 68
-1.306507 -0.735244 2.612917 68 69 70
-1.306518 -0.735210 2.612941 48 50 49
-1.306515 -0.735223 2.612934 130 131 132
-1.306519 -0.735209 2.612943 68 70 69
-1.306521 -0.735205 2.612948 65 67 66
-1.306522 -0.735204 2.612948 57 59 58
-1.306525 -0.735192 2.612956 56 57 58
-1.306516 -0.735220 2.612937 105 106 107
-1.306524 -0.735197 2.612953 61 62 63
-1.306522 -0.735203 2.612950 140 142 141
-1.306516 -0.735222 2.612939 59 60 61
-1.306521 -0.735210 2.612950 142 143 144
-1.306509 -0.735248 2.612926 62 64 63
-1.306513 -0.735238 2.612935 41 43 42
-1.306517 -0.735226 2.612943 63 64 65
-1.306517 -0.735226 2.612943 63 64 65
-1.306517 -0.735229 2.612943 57 58 59
-1.306513 -0.735243 2.612935 143 143 143
-1.306519 -0.735226 2.612948 62 63 64
-1.306515 -0.735240 2.612941 57 59 58
-1.306515 -0.735240 2.612941 57 59 58
-1.306514 -0.735244 2.612939 60 60 60
-1.306532 -0.735191 2.612975 110 111 112
-1.306514 -0.735246 2.612940 66 68 67
-1.306520 -0.735228 2.612953 63 64 65
-1.306522 -0.735223 2.612957 54 55 56
-1.306509 -0.735261 2.612931 126 127 128
-1.306509 -0.735261 2.612931 65 66 67
-1.306523 -0.735222 2.612959 76 78 77
-1.306523 -0.735222 2.612959 76 78 77
-1.306520 -0.735231 2.612952 127 129 128
-1.306513 -0.735251 2.612940 120 122 121
-1.306526 -0.735216 2.612965 53 55 54
-1.306519 -0.735236 2.612953 39 40 41
-1.306520 -0.735235 2.612954 107 108 109
-1.306507 -0.735275 2.612930 61 63 62
-1.306518 -0.735244 2.612953 79 80 81
-1.306533 -0.735202 2.612982 112 114 113
-1.306527 -0.735218 2.612972 67 69 68
-1.306529 -0.735214 2.612974 82 83 84
-1.306517 -0.735251 2.612951 140 141 142
-1.306520 -0.735242 2.612959 133 134 135
-1.306526 -0.735227 2.612971 137 141 140
-1.306516 -0.735257 2.612951 128 130 129
-1.306517 -0.735255 2.612954 108 109 110
-1.306518 -0.735254 2.612954 60 61 62
-1.306518 -0.735254 2.612954 60 61 62
-1.306525 -0.735238 2.612971 114 115 116
-1.306531 -0.735223 2.612984 68 69 70
-1.306528 -0.735234 2.612978 126 127 128
-1.306527 -0.735237 2.612976 76 78 77
-1.306527 -0.735237 2.612976 76 78 77
-1.306527 -0.735239 2.612976 137 138 139
-1.306543 -0.735189 2.613010 113 114 115
-1.306539 -0.735204 2.613000 128 129 130
-1.306522 -0.735252 2.612968 74 76 75
-1.306514 -0.735278 2.612952 119 120 121
-1.306521 -0.735259 2.612965 54 55 56
-1.306540 -0.735203 2.613003 114 115 116
-1.306524 -0.735248 2.612972 130 131 132
-1.306513 -0.735282 2.612951 132 136 135
-1.306536 -0.735216 2.612996 132 131 133
-1.306534 -0.735222 2.612993 152 154 153
-1.306529 -0.735237 2.612983 72 74 73
-1.306537 -0.735215 2.612999 66 67 68
-1.306524 -0.735254 2.612973 66 68 67
-1.306528 -0.735244 2.612982 68 69 70
-1.306534 -0.735227 2.612994 111 113 112
-1.306538 -0.735214 2.613003 64 65 66
-1.306539 -0.735213 2.613003 103 104 105
-1.306535 -0.735223 2.612998 63 65 64
-1.306530 -0.735241 2.612986 160 162 161
-1.306527 -0.735250 2.612981 130 131 132
-1.306527 -0.735250 2.612981 130 131 132
-1.306535 -0.735227 2.612996 55 56 57
-1.306540 -0.735210 2.613008 66 67 68
-1.306537 -0.735220 2.613001 57 59 58
-1.306537 -0.735220 2.613001 57 59 58
-1.306540 -0.735213 2.613009 56 57 58
-1.306522 -0.735269 2.612973 135 136 137
-1.306551 -0.735181 2.613032 58 60 59
-1.306535 -0.735232 2.612999 73 74 75
-1.306539 -0.735224 2.613007 138 139 140
-1.306548 -0.735197 2.613028 113 114 115
-1.306537 -0.735233 2.613005 69 71 70
-1.306541 -0.735221 2.613013 58 57 59
-1.306536 -0.735236 2.613004 111 112 113
-1.306535 -0.735241 2.613002 71 72 73
-1.306525 -0.735271 2.612982 111 112 113
-1.306540 -0.735226 2.613013 114 115 116
-1.306546 -0.735208 2.613025 63 64 65
-1.306529 -0.735261 2.612991 118 120 119
-1.306532 -0.735254 2.612996 62 63 64
-1.306541 -0.735225 2.613016 102 103 104
-1.306539 -0.735232 2.613011 127 129 128
-1.306535 -0.735245 2.613004 51 53 52
-1.306540 -0.735233 2.613014 60 62 61
-1.306544 -0.735223 2.613022 51 52 53
-1.306534 -0.735255 2.613003 74 75 76
-1.306543 -0.735226 2.613023 121 122 123
-1.306530 -0.735266 2.612997 112 113 114
-1.306523 -0.735288 2.612983 134 135 136
-1.306538 -0.735244 2.613014 56 57 58
-1.306546 -0.735222 2.613028 126 127 128
-1.306539 -0.735241 2.613016 52 53 54
-1.306531 -0.735268 2.612999 177 178 179
-1.306540 -0.735243 2.613018 54 55 56
-1.306540 -0.735246 2.613018 60 61 62
-1.306542 -0.735239 2.613024 66 67 68
-1.306538 -0.735252 2.613014 58 59 60
-1.306537 -0.735256 2.613012 135 134 136
-1.306542 -0.735240 2.613023 132 134 133
-1.306530 -0.735276 2.613000 71 73 72
-1.306536 -0.735260 2.613012 49 50 51
-1.306536 -0.735260 2.613014 164 166 165
-1.306534 -0.735267 2.613009 43 45 44
-1.306547 -0.735230 2.613034 74 75 76
-1.306541 -0.735248 2.613023 64 65 66
-1.306540 -0.735253 2.613021 106 107 108
-1.306536 -0.735266 2.613014 115 117 116
-1.306540 -0.735256 2.613023 57 59 58
-1.306542 -0.735252 2.613026 74 75 76
-1.306535 -0.735273 2.613013 72 73 74
-1.306545 -0.735242 2.613034 64 64 64
-1.306545 -0.735242 2.613034 64 64 64
-1.306537 -0.735268 2.613017 65 67 66
-1.306541 -0.735257 2.613025 119 120 121
-1.306554 -0.735219 2.613052 109 110 111
-1.306547 -0.735240 2.613038 160 160 160
-1.306542 -0.735257 2.613028 62 63 64
-1.306542 -0.735257 2.613028 62 63 64
-1.306542 -0.735257 2.613028 62 63 64
-1.306553 -0.735224 2.613051 123 124 125
-1.306535 -0.735279 2.613016 60 62 61
-1.306545 -0.735250 2.613035 80 82 81
-1.306552 -0.735229 2.613050 58 59 60
-1.306557 -0.735214 2.613061 124 125 126
-1.306541 -0.735264 2.613028 147 149 148
-1.306546 -0.735250 2.613039 66 67 68
-1.306548 -0.735244 2.613043 69 69 69
-1.306549 -0.735241 2.613046 162 165 166
-1.306547 -0.735252 2.613041 65 67 66
-1.306547 -0.735252 2.613041 65 67 66
-1.306546 -0.735253 2.613040 43 45 44
-1.306546 -0.735255 2.613040 129 130 131
-1.306550 -0.735241 2.613049 59 62 63
-1.306540 -0.735273 2.613028 123 122 124
-1.306547 -0.735255 2.613044 134 135 136
-1.306556 -0.735230 2.613061 147 148 149
-1.306546 -0.735258 2.613043 67 69 68
-1.306555 -0.735232 2.613061 120 121 122
-1.306548 -0.735256 2.613047 49 50 51
-1.306547 -0.735258 2.613046 62 63 64
-1.306556 -0.735232 2.613064 103 104 105
-1.306545 -0.735266 2.613042 140 142 141
-1.306548 -0.735257 2.613048 126 127 128
-1.306561 -0.735218 2.613075 112 113 114
-1.306556 -0.735235 2.613063 138 141 142
-1.306546 -0.735266 2.613044 123 125 124
-1.306544 -0.735275 2.613041 140 142 141
-1.306562 -0.735223 2.613078 108 109 110
-1.306556 -0.735240 2.613067 61 63 62
-1.306556 -0.735241 2.613067 62 64 63
-1.306546 -0.735273 2.613047 71 73 72
-1.306546 -0.735274 2.613047 83 85 84
-1.306547 -0.735271 2.613050 67 68 69
-1.306551 -0.735259 2.613058 118 119 120
-1.306557 -0.735241 2.613070 57 59 58
-1.306547 -0.735273 2.613050 138 140 139
-1.306547 -0.735273 2.613050 138 140 139
-1.306551 -0.735261 2.613057 57 58 59
-1.306549 -0.735267 2.613055 73 74 75
-1.306559 -0.735240 2.613076 62 63 64
-1.306546 -0.735284 2.613050 127 128 129
-1.306546 -0.735285 2.613051 65 66 67
-1.306544 -0.735291 2.613048 71 72 73
-1.306554 -0.735263 2.613066 117 118 119
-1.306556 -0.735257 2.613072 56 57 58
-1.306565 -0.735231 2.613090 111 112 113
-1.306549 -0.735280 2.613057 72 73 74
-1.306564 -0.735234 2.613088 59 61 60
-1.306564 -0.735234 2.613088 59 61 60
-1.306567 -0.735226 2.613094 137 139 138
-1.306560 -0.735247 2.613080 139 141 140
-1.306569 -0.735221 2.613098 55 56 57
-1.306569 -0.735221 2.613098 55 56 57
-1.306569 -0.735221 2.613097 126 127 128
-1.306559 -0.735250 2.613079 110 111 112
-1.306565 -0.735234 2.613090 129 130 131
-1.306559 -0.735253 2.613079 70 70 70
-1.306552 -0.735274 2.613066 62 63 64
-1.306559 -0.735257 2.613081 115 116 117
-1.306564 -0.735242 2.613091 122 124 123
-1.306552 -0.735279 2.613066 126 128 127
-1.306571 -0.735224 2.613106 125 126 127
-1.306564 -0.735245 2.613092 68 69 70
-1.306564 -0.735246 2.613092 62 63 64
-1.306567 -0.735238 2.613098 138 140 139
-1.306565 -0.735245 2.613094 122 123 124
-1.306559 -0.735262 2.613083 126 127 128
-1.306566 -0.735243 2.613096 110 112 111
-1.306557 -0.735268 2.613080 70 71 72
-1.306549 -0.735293 2.613064 124 125 126
-1.306548 -0.735296 2.613062 122 123 124
-1.306549 -0.735296 2.613063 70 71 72
-1.306559 -0.735264 2.613084 116 116 116
-1.306566 -0.735244 2.613097 66 68 67
-1.306566 -0.735245 2.613099 136 138 137
-1.306577 -0.735214 2.613120 106 108 107
-1.306562 -0.735259 2.613090 72 74 73
-1.306564 -0.735252 2.613095 132 133 134
-1.306564 -0.735252 2.613095 53 55 54
-1.306567 -0.735248 2.613101 117 118 119
-1.306567 -0.735250 2.613103 83 84 85
-1.306567 -0.735250 2.613103 83 84 85
-1.306554 -0.735290 2.613077 127 129 128
-1.306562 -0.735266 2.613093 115 116 117
-1.306570 -0.735244 2.613109 69 70 71
-1.306573 -0.735236 2.613115 63 64 65
-1.306567 -0.735254 2.613104 125 126 127
-1.306562 -0.735271 2.613095 67 68 69
-1.306571 -0.735244 2.613113 61 62 63
-1.306574 -0.735237 2.613118 97 98 99
-1.306566 -0.735266 2.613105 74 75 76
-1.306562 -0.735279 2.613097 56 57 58
-1.306557 -0.735293 2.613089 137 139 138
-1.306585 -0.735212 2.613144 109 110 111
-1.306573 -0.735249 2.613120 59 60 61
-1.306566 -0.735270 2.613106 59 61 60
-1.306564 -0.735276 2.613103 159 159 159
-1.306566 -0.735271 2.613106 124 126 125
-1.306566 -0.735270 2.613108 119 121 120
-1.306566 -0.735270 2.613108 119 121 120
-1.306564 -0.735280 2.613103 141 142 143
-1.306564 -0.735281 2.613103 130 131 132
-1.306567 -0.735273 2.613111 75 76 77
-1.306561 -0.735290 2.613100 154 155 156
-1.306565 -0.735279 2.613108 69 70 71
-1.306569 -0.735269 2.613115 114 115 116
-1.306568 -0.735273 2.613113 147 148 151
-1.306559 -0.735300 2.613095 129 130 131
-1.306576 -0.735249 2.613130 58 59 60
-1.306566 -0.735280 2.613109 121 122 123
-1.306578 -0.735244 2.613133 114 116 115
-1.306563 -0.735288 2.613104 196 197 198
-1.306571 -0.735265 2.613120 112 113 114
-1.306571 -0.735265 2.613120 112 113 114
-1.306564 -0.735286 2.613107 136 134 134
-1.306557 -0.735308 2.613092 68 69 70
-1.306568 -0.735276 2.613114 69 70 71
-1.306572 -0.735265 2.613122 130 131 132
-1.306572 -0.735265 2.613122 130 131 132
-1.306564 -0.735290 2.613106 69 68 70
-1.306571 -0.735268 2.613122 53 54 55
-1.306571 -0.735268 2.613122 53 54 55
-1.306577 -0.735250 2.613134 62 63 64
-1.306563 -0.735295 2.613105 155 157 156
-1.306565 -0.735290 2.613110 127 126 128
-1.306565 -0.735290 2.613110 127 126 128
-1.306564 -0.735293 2.613107 75 76 77
-1.306568 -0.735281 2.613116 153 154 155
-1.306569 -0.735278 2.613118 76 79 80
-1.306559 -0.735309 2.613099 80 81 82
-1.306590 -0.735218 2.613162 135 136 137
-1.306581 -0.735246 2.613144 122 123 124
-1.306581 -0.735248 2.613144 63 64 65
-1.306567 -0.735291 2.613117 144 143 145
-1.306590 -0.735223 2.613163 106 109 110
-1.306574 -0.735273 2.613132 43 44 45
-1.306566 -0.735298 2.613117 148 150 149
-1.306567 -0.735295 2.613120 163 162 164
-1.306573 -0.735278 2.613132 118 120 119
-1.306573 -0.735279 2.613131 68 69 70
-1.306567 -0.735300 2.613118 121 123 122
-1.306567 -0.735300 2.613118 121 123 122
-1.306564 -0.735309 2.613113 120 122 121
-1.306581 -0.735256 2.613148 121 123 122
-1.306585 -0.735244 2.613157 118 120 119
-1.306568 -0.735297 2.613123 128 129 130
-1.306578 -0.735270 2.613142 102 104 103
-1.306589 -0.735236 2.613165 46 47 48
-1.306576 -0.735274 2.613140 65 66 67
-1.306564 -0.735314 2.613115 71 72 73
-1.306570 -0.735296 2.613128 70 71 72
-1.306568 -0.735303 2.613123 78 79 80
-1.306565 -0.735312 2.613119 65 67 66
-1.306575 -0.735285 2.613138 130 131 132
-1.306584 -0.735259 2.613156 54 55 56
-1.306583 -0.735260 2.613156 69 70 71
-1.306591 -0.735238 2.613172 118 121 122
-1.306581 -0.735273 2.613154 123 124 125
-1.306578 -0.735283 2.613148 58 59 60
-1.306570 -0.735310 2.613132 130 132 131
-1.306570 -0.735308 2.613133 79 80 81
-1.306578 -0.735287 2.613150 57 58 59
-1.306585 -0.735269 2.613163 127 128 129
-1.306580 -0.735282 2.613154 108 110 109
-1.306587 -0.735261 2.613168 146 147 148
-1.306571 -0.735309 2.613137 124 125 126
-1.306581 -0.735282 2.613156 120 123 120
-1.306585 -0.735269 2.613165 54 55 56
-1.306582 -0.735281 2.613158 132 135 132
-1.306588 -0.735262 2.613171 62 64 63
-1.306579 -0.735293 2.613155 122 123 124
-1.306579 -0.735296 2.613154 154 156 155
-1.306577 -0.735302 2.613152 61 62 63
-1.306602 -0.735230 2.613204 140 141 142
-1.306585 -0.735283 2.613169 119 120 121
-1.306588 -0.735275 2.613175 79 80 81
-1.306588 -0.735274 2.613175 130 131 132
-1.306588 -0.735274 2.613175 130 131 132
-1.306600 -0.735238 2.613200 55 56 57
-1.306585 -0.735286 2.613169 61 63 62
-1.306584 -0.735288 2.613169 68 69 70
-1.306593 -0.735264 2.613185 65 66 67
-1.306593 -0.735265 2.613186 57 58 59
-1.306592 -0.735268 2.613186 111 112 113
-1.306596 -0.735260 2.613193 63 64 65
-1.306585 -0.735294 2.613172 77 79 78
-1.306597 -0.735261 2.613198 77 78 79
-1.306583 -0.735307 2.613169 124 125 126
-1.306594 -0.735273 2.613192 118 121 122
-1.306579 -0.735318 2.613162 57 59 58
-1.306584 -0.735304 2.613172 115 117 116
-1.306596 -0.735267 2.613196 144 145 146
-1.306596 -0.735267 2.613198 69 70 71
-1.306582 -0.735312 2.613169 57 58 59
-1.306583 -0.735310 2.613171 75 76 77
-1.306587 -0.735298 2.613179 127 128 129
-1.306587 -0.735297 2.613180 61 63 62
-1.306590 -0.735289 2.613187 71 73 72
-1.306585 -0.735306 2.613176 136 138 137
-1.306598 -0.735268 2.613202 106 107 108
-1.306582 -0.735315 2.613172 70 70 70
-1.306597 -0.735273 2.613200 129 131 130
-1.306597 -0.735273 2.613200 129 131 130
-1.306596 -0.735274 2.613200 71 72 73
-1.306596 -0.735274 2.613200 71 72 73
-1.306594 -0.735281 2.613197 60 61 62
-1.306594 -0.735283 2.613198 48 48 48
-1.306590 -0.735296 2.613190 130 132 131
-1.306593 -0.735289 2.613195 63 64 65
-1.306590 -0.735300 2.613189 56 57 58
-1.306590 -0.735298 2.613190 111 113 112
-1.306590 -0.735298 2.613190 111 113 112
-1.306585 -0.735313 2.613180 139 140 141
-1.306590 -0.735301 2.613190 67 68 69
-1.306595 -0.735287 2.613200 126 125 127
-1.306595 -0.735287 2.613200 126 125 127
-1.306597 -0.735283 2.613205 144 146 145
-1.306601 -0.735273 2.613214 66 68 67
-1.306590 -0.735305 2.613193 114 116 115
-1.306590 -0.735305 2.613193 114 116 115
-1.306595 -0.735295 2.613202 116 117 118
-1.306592 -0.735303 2.613196 127 129 128
-1.306586 -0.735321 2.613185 113 114 115
-1.306594 -0.735296 2.613202 59 60 61
-1.306576 -0.735353 2.613164 65 76 79
-1.306592 -0.735304 2.613198 77 78 79
-1.306595 -0.735296 2.613204 58 59 60
-1.306575 -0.735356 2.613164 83 88 91
-1.306599 -0.735283 2.613213 105 106 107
-1.306605 -0.735267 2.613224 107 108 109
-1.306605 -0.735267 2.613224 107 108 109
-1.306597 -0.735293 2.613207 115 116 117
-1.306576 -0.735355 2.613166 225 235 241
-1.306594 -0.735302 2.613202 117 118 119
-1.306608 -0.735262 2.613230 67 69 68
-1.306608 -0.735262 2.613230 67 69 68
-1.306594 -0.735303 2.613203 80 81 82
-1.306601 -0.735282 2.613218 63 64 65
-1.306603 -0.735276 2.613221 134 135 136
-1.306597 -0.735294 2.613209 64 65 66
-1.306598 -0.735291 2.613211 63 64 65
-1.306596 -0.735297 2.613207 109 110 111
-1.306577 -0.735354 2.613170 78 95 100
-1.306594 -0.735304 2.613203 67 68 69
-1.306602 -0.735281 2.613220 70 71 72
-1.306601 -0.735283 2.613219 119 120 121
-1.306601 -0.735285 2.613219 55 57 56
-1.306596 -0.735303 2.613208 67 68 69
-1.306578 -0.735355 2.613173 223 241 247
-1.306579 -0.735355 2.613176 86 103 109
-1.306596 -0.735305 2.613210 152 153 154
-1.306579 -0.735359 2.613175 176 194 199
-1.306603 -0.735289 2.613224 52 54 53
-1.306590 -0.735326 2.613199 74 79 82
-1.306591 -0.735325 2.613201 131 130 134
-1.306581 -0.735355 2.613180 138 153 156
-1.306595 -0.735314 2.613209 135 136 137
-1.306593 -0.735320 2.613206 74 76 75
-1.306606 -0.735283 2.613232 106 107 108
-1.306590 -0.735329 2.613201 59 62 63
-1.306604 -0.735290 2.613227 135 136 137
-1.306591 -0.735327 2.613203 63 66 74
-1.306589 -0.735333 2.613200 211 212 213
-1.306609 -0.735274 2.613239 109 110 111
-1.306580 -0.735360 2.613182 247 255 255
-1.306580 -0.735360 2.613182 247 255 255
-1.306592 -0.735328 2.613204 191 205 212
-1.306577 -0.735371 2.613176 75 80 83
-1.306590 -0.735333 2.613202 83 84 85
-1.306597 -0.735314 2.613215 118 119 120
-1.306587 -0.735345 2.613195 132 133 134
-1.306587 -0.735345 2.613195 132 133 134
-1.306612 -0.735270 2.613245 61 63 62
-1.306596 -0.735316 2.613215 120 121 122
-1.306578 -0.735371 2.613179 216 233 238
-1.306593 -0.735329 2.613208 133 149 157
-1.306579 -0.735370 2.613180 122 134 140
-1.306588 -0.735346 2.613199 80 81 82
-1.306588 -0.735346 2.613199 80 81 82
-1.306602 -0.735302 2.613229 61 62 63
-1.306599 -0.735314 2.613222 124 126 125
-1.306596 -0.735324 2.613216 57 58 59
-1.306581 -0.735367 2.613186 97 98 101
-1.306600 -0.735314 2.613225 43 45 44
-1.306598 -0.735319 2.613221 68 70 69
-1.306598 -0.735319 2.613221 68 70 69
-1.306598 -0.735321 2.613222 121 123 122
-1.306596 -0.735328 2.613218 29 28 30
-1.306589 -0.735349 2.613205 124 123 125
-1.306597 -0.735325 2.613221 64 63 65
-1.306582 -0.735372 2.613190 233 253 255
-1.306582 -0.735372 2.613190 140 157 163
-1.306593 -0.735342 2.613214 70 73 76
-1.306607 -0.735302 2.613241 60 61 62
-1.306607 -0.735304 2.613241 47 48 49
-1.306596 -0.735338 2.613220 58 61 62
-1.306598 -0.735332 2.613225 130 142 148
-1.306608 -0.735304 2.613245 66 67 68
-1.306599 -0.735329 2.613229 101 103 102
-1.306598 -0.735334 2.613226 103 117 123
-1.306586 -0.735372 2.613201 130 148 154
-1.306586 -0.735372 2.613201 130 148 154
-1.306593 -0.735349 2.613217 130 133 134
-1.306594 -0.735348 2.613218 84 87 88
-1.306596 -0.735342 2.613224 35 38 41
-1.306611 -0.735299 2.613253 120 121 122
-1.306602 -0.735327 2.613235 103 104 105
-1.306594 -0.735350 2.613219 76 77 78
-1.306602 -0.735327 2.613235 61 60 62
-1.306604 -0.735320 2.613240 47 48 49
-1.306589 -0.735365 2.613211 65 75 77
-1.306617 -0.735284 2.613267 112 113 114
-1.306605 -0.735320 2.613243 107 108 109
-1.306618 -0.735282 2.613270 68 69 70
-1.306598 -0.735343 2.613230 37 42 45
-1.306597 -0.735348 2.613227 232 246 252
-1.306597 -0.735348 2.613227 232 246 252
-1.306613 -0.735301 2.613259 130 131 132
-1.306609 -0.735311 2.613252 56 57 58
-1.306609 -0.735311 2.613252 56 57 58
-1.306596 -0.735352 2.613227 70 73 74
-1.306624 -0.735270 2.613283 115 116 117
-1.306624 -0.735270 2.613283 115 116 117
-1.306625 -0.735268 2.613286 47 48 49
-1.306592 -0.735368 2.613219 86 99 102
-1.306602 -0.735339 2.613239 57 74 79
-1.306592 -0.735369 2.613220 171 194 198
-1.306600 -0.735345 2.613236 92 110 115
-1.306600 -0.735345 2.613236 92 110 115
-1.306615 -0.735303 2.613266 116 117 118
-1.306618 -0.735295 2.613272 48 49 50
-1.306610 -0.735321 2.613257 100 102 101
-1.306610 -0.735321 2.613257 100 102 101
-1.306595 -0.735369 2.613228 100 104 103
-1.306594 -0.735372 2.613227 187 210 214
-1.306609 -0.735327 2.613258 60 61 62
-1.306609 -0.735328 2.613258 57 58 59
-1.306619 -0.735301 2.613277 58 59 60
-1.306630 -0.735268 2.613300 114 116 115
-1.306594 -0.735376 2.613229 245 254 255
-1.306596 -0.735373 2.613233 193 213 218
-1.306611 -0.735328 2.613263 55 56 57
-1.306631 -0.735269 2.613305 111 113 112
-1.306596 -0.735377 2.613234 236 251 254
-1.306615 -0.735321 2.613271 93 95 94
-1.306621 -0.735304 2.613284 47 48 49
-1.306609 -0.735339 2.613261 95 96 97
-1.306621 -0.735303 2.613285 45 46 47
-1.306602 -0.735360 2.613249 91 94 95
-1.306607 -0.735347 2.613258 213 233 238
-1.306615 -0.735329 2.613275 146 147 148
-1.306604 -0.735362 2.613252 84 85 88
-1.306596 -0.735385 2.613237 242 251 255
-1.306593 -0.735395 2.613233 97 98 101
-1.306604 -0.735364 2.613256 92 93 94
-1.306610 -0.735349 2.613266 112 132 137
-1.306610 -0.735350 2.613266 237 254 255
-1.306623 -0.735310 2.613294 49 51 50
-1.306601 -0.735377 2.613249 108 124 132
-1.306615 -0.735337 2.613278 101 102 103
-1.306606 -0.735364 2.613261 244 252 254
-1.306611 -0.735350 2.613271 225 244 252
-1.306612 -0.735348 2.613274 112 135 140
-1.306639 -0.735269 2.613328 119 121 120
-1.306602 -0.735379 2.613255 231 248 254
-1.306603 -0.735379 2.613256 95 105 111
-1.306627 -0.735309 2.613305 108 109 110
-1.306629 -0.735303 2.613309 63 65 64
-1.306602 -0.735382 2.613256 250 255 255
-1.306602 -0.735382 2.613256 250 255 255
-1.306610 -0.735358 2.613273 219 236 241
-1.306626 -0.735312 2.613304 108 110 109
-1.306626 -0.735312 2.613304 108 110 109
-1.306626 -0.735313 2.613305 64 66 65
-1.306613 -0.735351 2.613279 228 251 255
-1.306605 -0.735379 2.613262 143 162 164
-1.306625 -0.735318 2.613303 55 54 56
-1.306627 -0.735315 2.613307 106 107 108
-1.306616 -0.735349 2.613285 127 145 147
-1.306615 -0.735352 2.613284 224 245 255
-1.306605 -0.735383 2.613266 125 139 145
-1.306627 -0.735318 2.613309 118 119 120
-1.306606 -0.735381 2.613268 154 172 177
-1.306617 -0.735352 2.613289 192 209 217
-1.306629 -0.735317 2.613313 57 60 61
-1.306607 -0.735381 2.613270 87 97 103
-1.306606 -0.735384 2.613269 140 154 160
-1.306629 -0.735318 2.613314 115 118 119
-1.306616 -0.735354 2.613289 244 251 255
-1.306616 -0.735354 2.613289 244 251 255
-1.306617 -0.735353 2.613292 98 120 127
-1.306607 -0.735383 2.613272 147 161 167
-1.306607 -0.735386 2.613270 233 246 249
-1.306633 -0.735311 2.613323 112 113 114
-1.306619 -0.735353 2.613296 87 103 111
-1.306619 -0.735353 2.613297 121 139 144
-1.306619 -0.735355 2.613298 111 130 138
-1.306620 -0.735357 2.613300 238 255 255
-1.306620 -0.735356 2.613301 170 192 199
-1.306630 -0.735327 2.613320 118 119 120
-1.306610 -0.735385 2.613281 93 100 104
-1.306621 -0.735355 2.613302 76 93 99
-1.306610 -0.735389 2.613280 143 161 166
-1.306629 -0.735332 2.613319 109 109 109
-1.306621 -0.735357 2.613303 109 126 131
-1.306636 -0.735314 2.613334 64 66 65
-1.306640 -0.735305 2.613343 57 58 59
-1.306638 -0.735311 2.613340 54 55 56
-1.306631 -0.735333 2.613326 41 42 43
-1.306622 -0.735361 2.613309 226 244 250
-1.306640 -0.735311 2.613345 63 64 65
-1.306640 -0.735311 2.613345 63 64 65
-1.306633 -0.735334 2.613331 114 117 118
-1.306633 -0.735334 2.613331 114 117 118
-1.306617 -0.735380 2.613301 243 249 255
-1.306644 -0.735304 2.613354 115 117 116
-1.306624 -0.735362 2.613315 105 122 130
-1.306614 -0.735391 2.613296 82 92 94
-1.306615 -0.735392 2.613297 166 184 189
-1.306625 -0.735364 2.613319 111 134 138
-1.306640 -0.735321 2.613350 54 56 55
-1.306640 -0.735321 2.613350 54 56 55
-1.306640 -0.735322 2.613349 49 51 50
-1.306640 -0.735322 2.613350 139 141 140
-1.306637 -0.735332 2.613344 109 110 111
-1.306642 -0.735317 2.613354 61 62 63
-1.306621 -0.735386 2.613313 85 86 87
-1.306621 -0.735385 2.613314 244 253 255
-1.306643 -0.735318 2.613359 60 60 60
-1.306644 -0.735317 2.613360 67 67 67
-1.306643 -0.735320 2.613359 59 59 59
-1.306618 -0.735396 2.613308 186 204 210
-1.306650 -0.735299 2.613373 68 69 70
-1.306628 -0.735367 2.613329 74 91 97
-1.306652 -0.735298 2.613377 128 129 130
-1.306618 -0.735400 2.613309 155 177 184
-1.306629 -0.735366 2.613333 123 134 137
-1.306620 -0.735393 2.613314 104 105 106
-1.306620 -0.735393 2.613314 104 105 106
-1.306619 -0.735398 2.613312 191 209 215
-1.306620 -0.735398 2.613313 84 92 99
-1.306629 -0.735369 2.613332 93 107 114
-1.306647 -0.735317 2.613369 148 147 149
-1.306648 -0.735317 2.613371 76 78 77
-1.306631 -0.735368 2.613338 120 137 142
-1.306621 -0.735399 2.613319 97 108 111
-1.306632 -0.735369 2.613341 21 34 37
-1.306638 -0.735350 2.613354 46 47 50
-1.306631 -0.735371 2.613339 94 111 117
-1.306649 -0.735317 2.613376 65 66 67
-1.306638 -0.735349 2.613354 49 57 57
-1.306634 -0.735363 2.613345 132 141 145
-1.306646 -0.735327 2.613371 63 64 65
-1.306639 -0.735349 2.613357 67 73 72
-1.306635 -0.735365 2.613348 91 107 115
-1.306648 -0.735326 2.613374 126 127 128
-1.306634 -0.735366 2.613347 198 222 229
-1.306633 -0.735371 2.613345 142 160 165
-1.306642 -0.735344 2.613364 116 117 118
-1.306622 -0.735405 2.613323 247 254 255
-1.306633 -0.735374 2.613346 210 235 240
-1.306623 -0.735404 2.613327 206 231 236
-1.306634 -0.735371 2.613349 31 41 43
-1.306653 -0.735317 2.613387 111 112 113
-1.306636 -0.735369 2.613353 227 245 250
-1.306634 -0.735375 2.613350 196 221 226
-1.306624 -0.735405 2.613330 143 165 172
-1.306624 -0.735405 2.613330 143 165 172
-1.306624 -0.735405 2.613330 143 165 172
-1.306638 -0.735367 2.613358 109 125 133
-1.306629 -0.735395 2.613340 233 243 249
-1.306643 -0.735355 2.613371 229 247 252
-1.306636 -0.735376 2.613357 196 221 226
-1.306637 -0.735375 2.613360 89 109 114
-1.306629 -0.735404 2.613344 140 152 159
-1.306656 -0.735324 2.613399 140 141 142
-1.306630 -0.735404 2.613347 152 164 170
-1.306639 -0.735377 2.613365 205 229 236
-1.306646 -0.735356 2.613380 130 143 146
-1.306639 -0.735377 2.613366 163 183 189
-1.306630 -0.735404 2.613348 86 98 104
-1.306630 -0.735406 2.613348 234 255 255
-1.306631 -0.735404 2.613352 144 154 160
-1.306642 -0.735375 2.613374 104 118 125
-1.306631 -0.735409 2.613352 243 252 255
-1.306659 -0.735328 2.613408 48 49 50
-1.306647 -0.735364 2.613385 58 60 59
-1.306659 -0.735328 2.613410 110 111 112
-1.306666 -0.735311 2.613423 111 112 113
-1.306666 -0.735311 2.613423 111 112 113
-1.306635 -0.735403 2.613362 220 238 244
-1.306635 -0.735403 2.613362 220 238 244
-1.306643 -0.735377 2.613379 113 127 133
-1.306635 -0.735405 2.613363 119 133 134
-1.306661 -0.735331 2.613418 59 60 61
-1.306646 -0.735376 2.613388 16 26 28
-1.306636 -0.735408 2.613368 110 128 133
-1.306646 -0.735379 2.613387 136 148 154
-1.306626 -0.735440 2.613348 239 247 249
-1.306646 -0.735381 2.613389 104 118 124
-1.306652 -0.735365 2.613400 104 123 125
-1.306648 -0.735377 2.613392 109 122 125
-1.306652 -0.735365 2.613401 95 113 118
-1.306651 -0.735370 2.613399 236 246 248
-1.306638 -0.735409 2.613374 222 239 244
-1.306652 -0.735368 2.613403 218 236 242
-1.306652 -0.735368 2.613403 218 236 242
-1.306640 -0.735405 2.613378 253 254 255
-1.306649 -0.735379 2.613395 137 150 153
-1.306651 -0.735372 2.613400 41 46 47
-1.306628 -0.735442 2.613354 224 229 232
-1.306651 -0.735372 2.613401 193 198 201
-1.306662 -0.735341 2.613423 95 96 97
-1.306651 -0.735374 2.613402 147 158 161
-1.306651 -0.735376 2.613402 153 165 166
-1.306640 -0.735409 2.613380 227 245 251
-1.306644 -0.735398 2.613388 231 249 255
-1.306641 -0.735409 2.613382 125 143 149
-1.306655 -0.735369 2.613410 107 129 136
-1.306649 -0.735385 2.613400 105 119 126
-1.306664 -0.735342 2.613430 108 109 110
-1.306651 -0.735383 2.613404 59 69 71
-1.306674 -0.735314 2.613450 122 123 124
-1.306644 -0.735407 2.613390 248 255 255
-1.306651 -0.735387 2.613404 99 116 122
-1.306673 -0.735322 2.613448 114 115 116
-1.306651 -0.735385 2.613406 86 97 100
-1.306655 -0.735376 2.613413 169 186 191
-1.306654 -0.735381 2.613411 94 109 112
-1.306656 -0.735372 2.613417 215 235 241
-1.306648 -0.735400 2.613400 237 255 255
-1.306653 -0.735384 2.613411 75 85 87
-1.306672 -0.735329 2.613451 105 107 106
-1.306671 -0.735334 2.613448 60 62 61
-1.306646 -0.735409 2.613398 111 125 131
-1.306658 -0.735374 2.613421 89 107 109
-1.306658 -0.735377 2.613423 101 112 115
-1.306653 -0.735391 2.613414 125 140 143
-1.306656 -0.735383 2.613420 73 85 86
-1.306646 -0.735412 2.613400 233 251 255
-1.306651 -0.735401 2.613409 243 255 255
-1.306651 -0.735401 2.613409 243 255 255
-1.306674 -0.735334 2.613458 60 62 61
-1.306649 -0.735411 2.613407 108 131 135
-1.306658 -0.735387 2.613427 53 66 69
-1.306658 -0.735387 2.613427 53 66 69
-1.306636 -0.735455 2.613383 102 107 108
-1.306662 -0.735383 2.613437 59 68 72
-1.306687 -0.735307 2.613489 131 134 135
-1.306658 -0.735397 2.613428 131 141 148
-1.306681 -0.735329 2.613477 117 118 119
-1.306654 -0.735413 2.613423 143 161 166
-1.306681 -0.735331 2.613477 68 69 70
-1.306681 -0.735334 2.613477 131 132 133
-1.306676 -0.735352 2.613468 47 48 49
-1.306660 -0.735399 2.613437 147 157 163
-1.306676 -0.735352 2.613470 113 114 115
-1.306657 -0.735410 2.613431 238 252 255
-1.306678 -0.735347 2.613474 117 118 119
-1.306659 -0.735404 2.613436 146 170 171
-1.306682 -0.735336 2.613481 60 61 62
-1.306682 -0.735336 2.613481 60 61 62
-1.306641 -0.735461 2.613400 104 107 108
-1.306661 -0.735401 2.613441 110 122 128
-1.306679 -0.735349 2.613478 48 50 49
-1.306679 -0.735349 2.613478 48 50 49
-1.306668 -0.735383 2.613456 17 25 27
-1.306660 -0.735410 2.613442 227 244 250
-1.306677 -0.735360 2.613476 41 42 43
-1.306661 -0.735411 2.613445 123 141 146
-1.306663 -0.735407 2.613449 216 239 243
-1.306660 -0.735416 2.613444 226 243 251
